# .PCD v0.7 - Point Cloud Data file format
VERSION 0.7
FIELDS x y z
SIZE 4 4 4
TYPE F F F
COUNT 1 1 1
WIDTH 1352
HEIGHT 1
VIEWPOINT 0 0 0 1 0 0 0
POINTS 1352
DATA ascii
-0.01488555 -0.076626644 0.22000001
-0.013625067 -0.076408781 0.22000001
-0.01189774 -0.076019742 0.21999998
-0.010640371 -0.075805001 0.22
-0.0095790764 -0.075257227 0.22000001
-0.14446622 -0.074401349 0.22000001
-0.1430968 -0.074401356 0.22
-0.14159045 -0.074435584 0.22000001
-0.14042644 -0.074777938 0.22
-0.011404959 -0.07480076 0.22000001
-0.010434959 -0.074401356 0.22000001
-0.009208194 -0.074315764 0.22000001
-0.14462836 -0.072770663 0.22000001
-0.14312534 -0.072889276 0.21999997
-0.14195563 -0.07343135 0.22000001
-0.010111626 -0.073050953 0.22000001
-0.008894369 -0.072860748 0.21999997
-0.0073693423 -0.072456166 0.22000001
-0.0061555444 -0.072176054 0.22000001
-0.14754739 -0.070900016 0.22000001
-0.14632215 -0.071112961 0.22000001
-0.14480858 -0.071410798 0.22000001
-0.14348197 -0.071534142 0.22000001
-0.0086987382 -0.07144244 0.22000001
-0.0071540754 -0.071177527 0.21999997
-0.0056690434 -0.071112968 0.22000001
-0.0047861319 -0.070635468 0.22000001
-0.14919069 -0.069231816 0.22
-0.14778908 -0.069537923 0.22000001
-0.14634918 -0.069608405 0.22000001
-0.1450368 -0.0693231 0.22000001
-0.0066446206 -0.069681771 0.22000001
-0.0056420146 -0.069608405 0.22000001
-0.0044749021 -0.06956172 0.22000001
-0.15062857 -0.067896642 0.22000001
-0.14950813 -0.068021126 0.21999998
-0.14788976 -0.068067811 0.21999997
-0.14634918 -0.068067811 0.22
-0.14528784 -0.068204761 0.22
-0.0064978977 -0.068238989 0.22000001
-0.0056420146 -0.068067811 0.22
-0.0041609658 -0.068023153 0.21999998
-0.00290319 -0.067383111 0.22000001
-0.15083399 -0.065945223 0.22
-0.14960149 -0.066356055 0.21999997
-0.14788979 -0.066384591 0.21999997
-0.14655147 -0.066605039 0.22000001
-0.0055564265 -0.066669874 0.22000001
-0.0040728967 -0.066384591 0.21999997
-0.0025338086 -0.066211902 0.22000001
-0.15089484 -0.064682327 0.22000001
-0.14960149 -0.064815477 0.22
-0.14803647 -0.064766549 0.22000001
-0.0036449551 -0.065100752 0.22000001
-0.0023896603 -0.064815469 0.22
-0.0012484827 -0.064701341 0.22000001
-0.15242593 -0.062846929 0.22000001
-0.15131329 -0.063274868 0.21999998
-0.14968053 -0.063669898 0.22000001
-0.14840329 -0.063959584 0.22000001
-0.00207843 -0.063586101 0.22000001
-0.00084907084 -0.063274875 0.22
0.00050717423 -0.062932521 0.22000001
-0.15382387 -0.06099252 0.22000001
-0.1527968 -0.061506052 0.22000001
-0.1518268 -0.061777081 0.22000001
-0.00056377664 -0.062019575 0.22000001
0.00069151825 -0.061563097 0.21999997
0.0019848524 -0.061258793 0.22000001
-0.15431836 -0.059984479 0.22000001
-0.15285388 -0.060022522 0.22000001
-0.15199798 -0.060193691 0.22000001
0.0009360562 -0.060071435 0.22000001
0.0021587461 -0.059973609 0.22000001
-0.15551934 -0.058335204 0.22000001
-0.15439443 -0.058481921 0.21999997
-0.15292437 -0.058582623 0.22000001
0.0012784095 -0.058628649 0.22000001
0.0023721608 -0.058435246 0.21999998
0.003544461 -0.057911336 0.22000001
-0.15573753 -0.056638487 0.22000001
-0.15439443 -0.056770168 0.21999997
-0.15325327 -0.057055455 0.22000001
0.0013762246 -0.056541923 0.22000001
0.002403284 -0.056770168 0.21999997
0.0040703956 -0.056710627 0.21999998
0.005142109 -0.05625663 0.22000001
-0.15753269 -0.054944281 0.22000001
-0.15607019 -0.055202547 0.22000001
-0.1545901 -0.055351846 0.22000001
0.0013762246 -0.055229574 0.22000001
0.002403284 -0.055229574 0.22
0.0041150497 -0.055229574 0.22
0.0055129919 -0.055143986 0.22000001
-0.15927869 -0.05378028 0.22000001
-0.15764681 -0.053713437 0.22000001
-0.1560777 -0.053674717 0.21999997
-0.1549508 -0.053646185 0.22000001
0.0026315197 -0.054202512 0.22000001
0.0041150502 -0.053688988 0.21999997
0.0056556389 -0.053688981 0.22
0.0065971105 -0.053261042 0.22000001
-0.15573275 -0.052226201 0.22000001
-0.15476124 -0.051928315 0.22000001
0.0044859326 -0.052176923 0.22000001
0.0056556393 -0.051977225 0.22
0.0069679925 -0.051920157 0.22000001
-0.15556824 -0.050363269 0.22000001
-0.15480527 -0.050505102 0.22
0.0047997562 -0.050607804 0.22000001
0.0056556389 -0.050436627 0.22000001
0.0070753968 -0.050406419 0.22000001
-0.1585027 -0.048211332 0.22000001
-0.15751366 -0.048477609 0.22000001
-0.15621434 -0.04896811 0.22000001
-0.15507917 -0.049409568 0.22000001
0.0058039925 -0.048987336 0.22000001
0.0071962285 -0.048896044 0.21999997
0.008565641 -0.048553683 0.22
-0.16038564 -0.046499569 0.22000001
-0.15914272 -0.047124732 0.21999998
-0.15776907 -0.047379907 0.22000001
-0.15661976 -0.047868982 0.22000001
0.0059979921 -0.047868982 0.22000001
0.007281817 -0.047612216 0.22000001
0.0089079943 -0.047184277 0.21999997
0.010130684 -0.046841919 0.22000001
-0.16080788 -0.045495331 0.22000001
-0.15942441 -0.045762196 0.22000001
0.0089840721 -0.045605652 0.22000001
0.010375222 -0.045594778 0.22000001
-0.16192622 -0.043589566 0.22000001
-0.16089918 -0.044103093 0.21999997
-0.15980364 -0.044376981 0.22
0.0074244631 -0.04387486 0.22000001
0.0089079924 -0.044103097 0.21999997
0.010448582 -0.044103093 0.22
-0.16221152 -0.042248681 0.22000001
-0.16089916 -0.042391334 0.21999997
0.0061691687 -0.04273368 0.22000001
0.0072969198 -0.04263299 0.22000001
0.0089079924 -0.042391323 0.21999997
0.010448583 -0.04239133 0.22
0.011304465 -0.042220153 0.22000001
-0.16329564 -0.040679563 0.22000001
-0.16243976 -0.040850744 0.22000001
-0.16089916 -0.040850744 0.22
0.0092218192 -0.040907804 0.22000001
0.010448582 -0.040850744 0.22000001
0.011532701 -0.040793683 0.22000001
-0.1634478 -0.039234072 0.22000001
-0.16243978 -0.03931015 0.22
-0.16089916 -0.039310146 0.21999997
-0.15975799 -0.03902486 0.22000001
0.0093748411 -0.039372396 0.22000001
0.010448582 -0.039310157 0.22
0.011727374 -0.039249737 0.22000001
-0.1633641 -0.037872266 0.22
-0.16243978 -0.037598386 0.22
-0.16089916 -0.037598375 0.21999997
-0.1597743 -0.037745111 0.22000001
0.0095927007 -0.038111914 0.22000001
0.01047561 -0.037634417 0.22000001
0.011960643 -0.037569862 0.21999997
-0.16360946 -0.035686914 0.22000001
-0.16243978 -0.035886623 0.22
-0.1610361 -0.035989325 0.22
0.010864298 -0.03603334 0.22000001
0.011989172 -0.035886623 0.21999997
0.013016231 -0.035544265 0.22000001
-0.16500741 -0.033832502 0.22000001
-0.16394429 -0.034319002 0.22000001
-0.16255386 -0.03446015 0.22000001
-0.16141269 -0.03485956 0.22000001
0.010962113 -0.034517206 0.22000001
0.011989173 -0.034346033 0.22
0.013244468 -0.034288973 0.22000001
-0.1639208 -0.032850098 0.21999998
-0.16280112 -0.032729365 0.22000001
0.012048714 -0.03285009 0.21999998
0.013459275 -0.032724887 0.22000001
-0.16512154 -0.030523086 0.22000001
-0.1639208 -0.031049021 0.21999998
-0.16266361 -0.031172682 0.22000001
0.01216035 -0.031093672 0.22
0.013700936 -0.031093676 0.21999997
-0.16671917 -0.029039556 0.22000001
-0.16565606 -0.029526059 0.22000001
-0.16405639 -0.029591126 0.22000001
-0.16295329 -0.030066617 0.22000001
0.011989174 -0.029553089 0.22
0.013580106 -0.029583292 0.22000001
-0.16928682 -0.028012497 0.22000001
-0.16684757 -0.02814088 0.22000001
-0.16569211 -0.028012497 0.21999997
-0.16449387 -0.028226469 0.22000001
0.010962113 -0.027670145 0.22000001
0.011989173 -0.028012497 0.21999997
0.01352976 -0.028012494 0.22
-0.16671917 -0.026300728 0.22
-0.16569211 -0.02630073 0.21999997
-0.16466506 -0.02681426 0.22000001
0.010905054 -0.026243672 0.22000001
0.011989173 -0.02630073 0.21999997
0.013641397 -0.026285848 0.21999998
-0.16671917 -0.024760142 0.22000001
-0.16572814 -0.024733113 0.22000001
-0.16466506 -0.024246613 0.22000001
0.010962113 -0.025273671 0.22000001
0.012089865 -0.024830626 0.22000001
0.013700937 -0.024760144 0.22
0.014727998 -0.024246613 0.22000001
-0.16557799 -0.023301065 0.22
-0.16412131 -0.022998031 0.22000001
-0.1627821 -0.022534847 0.22000001
0.012502701 -0.023433525 0.22000001
0.013700937 -0.023219552 0.21999997
0.014976981 -0.023063939 0.22000001
-0.16710432 -0.021037051 0.22000001
-0.16561429 -0.021429982 0.21999998
-0.16398033 -0.02150779 0.21999997
-0.16253038 -0.021447374 0.22000001
0.013700936 -0.021507792 0.21999997
0.0152145 -0.021471754 0.22000001
-0.16817418 -0.020138375 0.22000001
-0.16723271 -0.0199672 0.22000001
-0.16569211 -0.019967198 0.22
-0.16398032 -0.0199672 0.22
-0.16251314 -0.020016106 0.22000001
0.013964285 -0.02005937 0.22000001
0.015207292 -0.020001436 0.22000001
-0.16808859 -0.018597785 0.22000001
-0.16716224 -0.018466884 0.22000001
-0.16569211 -0.018426608 0.21999997
-0.16398033 -0.018426608 0.21999997
-0.16270429 -0.018582227 0.22000001
0.014233489 -0.018388571 0.22000001
0.01507035 -0.01842661 0.22000001
-0.1652813 -0.016954491 0.22
-0.16398035 -0.016714845 0.21999997
-0.16295329 -0.017399549 0.22000001
0.014095961 -0.016635839 0.22000001
0.01507035 -0.016714843 0.22000001
-0.16500741 -0.015174254 0.22000001
-0.16405641 -0.015174255 0.22000001
0.014074415 -0.015220939 0.22000001
0.015168166 -0.015125348 0.22000001
-0.16519761 -0.013443469 0.22000001
-0.16425851 -0.013740653 0.22000001
0.014214468 -0.013633667 0.22
0.015241528 -0.013633667 0.22
0.01609741 -0.013633666 0.22
-0.16546386 -0.011921898 0.22000001
-0.16460799 -0.011807782 0.22000001
0.014328587 -0.012036017 0.22000001
0.01521132 -0.01202259 0.22000001
-0.16520305 -0.010552486 0.22000001
-0.16429417 -0.010295722 0.22000001
0.014385644 -0.010210133 0.22000001
0.015184469 -0.010324251 0.22000001
-0.16689035 -0.0081560137 0.22000001
-0.16553234 -0.0085668378 0.22000001
-0.16425851 -0.0089477059 0.22000001
0.014257262 -0.0087123383 0.22000001
0.015150905 -0.0087803062 0.22000001
-0.16871625 -0.0069007189 0.22000001
-0.16723272 -0.0071289549 0.22
-0.16582903 -0.0071974257 0.22
-0.16466506 -0.0078136614 0.22000001
0.014043289 -0.0071289549 0.22000001
0.015232519 -0.0071469727 0.22000001
0.01609741 -0.0067866016 0.22000001
-0.16879964 -0.0058122128 0.22000001
-0.1671838 -0.0056617269 0.22000001
-0.16569211 -0.0055883662 0.22
-0.16446941 -0.0054171896 0.22000001
0.013945474 -0.0055394582 0.22000001
0.015241527 -0.0055883662 0.22000001
-0.16553804 -0.0041162474 0.22
-0.16403987 -0.004003122 0.21999998
-0.16295329 -0.0033630701 0.22000001
0.013831357 -0.0040640784 0.22
0.01507035 -0.0041700457 0.22000001
-0.16534975 -0.0023360106 0.22000001
-0.16398035 -0.002336011 0.21999997
-0.16295329 -0.0025071874 0.22000001
0.013902321 -0.002356149 0.22000001
0.014918193 -0.0023360106 0.22000001
-0.1652813 -0.0008638922 0.22
-0.16398033 -0.00079542154 0.22
0.013821767 -0.00076521398 0.22000001
0.014899174 -0.0007954216 0.22000001
-0.16512154 0.00045987338 0.22000001
-0.16398035 0.00074516772 0.21999997
-0.16281633 0.0011559913 0.22
0.012673878 0.00091634423 0.22000001
0.013700937 0.00074516766 0.21999997
0.014899174 0.00074516766 0.22
-0.16375883 0.0023159648 0.22000001
-0.16246681 0.0024929708 0.22000001
-0.16158387 0.0031416398 0.22000001
0.013586819 0.0023754209 0.22
0.014727998 0.0019434036 0.22000001
-0.16329564 0.0039975224 0.22000001
-0.16243979 0.0039975224 0.22000001
-0.16158387 0.0039975224 0.22000001
0.012673878 0.0043398757 0.22000001
0.013700937 0.0039975215 0.22
0.014727998 0.003826346 0.22000001
-0.16339347 0.0056848344 0.22000001
-0.16243978 0.0055381125 0.22
-0.16158387 0.0055381116 0.22
0.012483682 0.0057283081 0.22000001
0.013586819 0.0054565989 0.22
-0.16354463 0.0070942622 0.22000001
-0.16243978 0.0072498778 0.22
-0.16148606 0.0073966002 0.22000001
0.012331527 0.0072498769 0.22000001
0.013234093 0.0071876314 0.22000001
-0.16226858 0.0086192898 0.22
-0.16124152 0.0088993972 0.22000001
0.012331526 0.008790466 0.22000001
0.013187408 0.0087904669 0.22000001
-0.16107035 0.010331054 0.22
0.012119594 0.010363661 0.22
0.013334131 0.010379964 0.22000001
-0.16211642 0.012233017 0.22000001
-0.16119589 0.011905879 0.22000001
0.010847996 0.012328115 0.22000001
0.011989173 0.012042821 0.21999997
0.013187408 0.01204282 0.22
-0.16240551 0.013617648 0.22000001
-0.1614127 0.013583411 0.22000001
0.010540755 0.013675582 0.22000001
0.011989173 0.013583412 0.22
0.013153173 0.013343764 0.22
-0.16329564 0.014610469 0.22000001
-0.16243978 0.015123999 0.22
-0.1610433 0.015268149 0.22000001
0.0095927007 0.015466352 0.22000001
0.010448583 0.015124001 0.22
0.011753805 0.014952823 0.22000001
-0.16243979 0.016835766 0.22
-0.16089916 0.016835768 0.21999997
-0.15973517 0.017246589 0.22
0.0093437172 0.016991381 0.22000001
0.010448582 0.016835768 0.22
0.011304465 0.016322237 0.22000001
-0.16220012 0.018307885 0.22
-0.16089916 0.018376354 0.22
-0.15959823 0.018444827 0.22
0.0089440309 0.018403385 0.22000001
0.010414348 0.018342119 0.22000001
-0.16192622 0.019232238 0.22000001
-0.16083692 0.019450098 0.22000001
-0.15924692 0.019961599 0.21999998
-0.15804623 0.020487532 0.22000001
0.0077668168 0.02020224 0.22000001
0.0089079924 0.019916944 0.21999997
0.01035796 0.019856531 0.22000001
-0.15884505 0.021444367 0.22000001
-0.15767387 0.021664748 0.22000001
-0.1565627 0.022085181 0.22000001
0.0061691687 0.022313416 0.22000001
0.0072740363 0.02170652 0.21999998
0.0088794651 0.021600181 0.21999997
0.010071995 0.021217886 0.22
-0.1585027 0.022655768 0.22000001
-0.15757346 0.02312039 0.22000001
-0.15614226 0.023196323 0.22000001
-0.15507917 0.023511652 0.22000001
0.0061691687 0.023169298 0.22000001
0.007196229 0.023169298 0.22
0.0084515242 0.023112241 0.22000001
-0.15755619 0.024770305 0.22000001
-0.15610622 0.024709886 0.21999997
-0.15507917 0.024709888 0.22
0.0061691687 0.024196358 0.22000001
0.0072557693 0.024665236 0.21999998
0.0082232878 0.024709888 0.22
-0.1585027 0.026421653 0.22000001
-0.15764685 0.026421657 0.22
-0.15610622 0.026421655 0.21999997
-0.1549508 0.026550036 0.22000001
0.0073103467 0.026269495 0.22000001
-0.15752831 0.02792274 0.22000001
-0.15610623 0.027962241 0.22
-0.15496506 0.027848126 0.22000001
0.0070250519 0.027619891 0.22000001
-0.15728542 0.029426757 0.22000001
-0.15610622 0.029502837 0.21999997
-0.15496506 0.030073421 0.22000001
-0.15713328 0.030529894 0.22000001
-0.15596208 0.031070452 0.22000001
-0.15447225 0.031292412 0.21999998
-0.15296799 0.031785186 0.22000001
-0.15419884 0.032632921 0.22000001
-0.15285388 0.032755189 0.22000001
-0.15161285 0.033054747 0.22000001
-0.15370975 0.033782247 0.22000001
-0.15283485 0.033877343 0.22000001
-0.15128477 0.03426725 0.21999997
-0.15028621 0.034466956 0.22000001
-0.15255819 0.036069788 0.22000001
-0.15131329 0.036007538 0.21999997
-0.15009601 0.036197741 0.22000001
-0.15245445 0.037148718 0.22000001
-0.15127726 0.037521102 0.22000001
-0.14975128 0.037612319 0.22000001
-0.15101656 0.038951777 0.22000001
-0.1496015 0.039088711 0.21999997
-0.14832547 0.039244335 0.22000001
-0.15074269 0.040229898 0.22000001
-0.14954196 0.040755827 0.21999998
-0.14800386 0.040881999 0.22
-0.14912224 0.042375304 0.22
-0.14788976 0.042512253 0.21999997
-0.14652035 0.0428546 0.22
-0.14549327 0.043196958 0.22000001
-0.14773998 0.043988649 0.22000001
-0.14634918 0.044052836 0.22000001
-0.14486562 0.044109896 0.22000001
-0.14355327 0.044338133 0.22000001
-0.14720505 0.044908721 0.22000001
-0.14628069 0.045182608 0.22
-0.14480855 0.045593437 0.21999997
-0.14343916 0.045593433 0.22000001
-0.14583562 0.046791665 0.22000001
-0.14480855 0.047305204 0.21999997
-0.14321092 0.047386713 0.22
-0.14206974 0.047989901 0.22000001
-0.14462596 0.048765898 0.22000001
-0.14309679 0.048845783 0.22
-0.14167035 0.048959907 0.22000001
-0.14070034 0.049359314 0.22000001
-0.14429504 0.049701668 0.22000001
-0.14297453 0.050044023 0.22000001
-0.14155623 0.050386377 0.22
-0.14011832 0.050523318 0.22
-0.13887446 0.050956964 0.22000001
-0.14127094 0.051641673 0.22000001
-0.14001562 0.052098151 0.21999997
-0.13834853 0.052157681 0.21999998
-0.13716267 0.052668732 0.22000001
-0.13954489 0.053510349 0.22000001
-0.13830388 0.053638734 0.22
-0.13679749 0.053672958 0.22000001
-0.13522269 0.053695794 0.22000001
-0.13393885 0.053553142 0.22000001
-0.13809463 0.055084225 0.22000001
-0.1367633 0.055179317 0.22
-0.13522269 0.055179324 0.21999997
-0.13368209 0.055414684 0.22000001
-0.13197032 0.055521678 0.22000001
-0.13053674 0.05545748 0.22000001
-0.13773327 0.056320492 0.22000001
-0.13669908 0.056741297 0.22000001
-0.13522269 0.056891073 0.21999997
-0.13352515 0.056862552 0.21999997
-0.13197033 0.056891076 0.22
-0.13042974 0.056891073 0.21999997
-0.12919727 0.056788377 0.22
-0.13624975 0.057918143 0.22000001
-0.13522269 0.058015954 0.22000001
-0.13346201 0.05823604 0.22000001
-0.13197032 0.05843167 0.22000001
-0.13042974 0.058431674 0.22
-0.12940268 0.05848873 0.22000001
-0.13294034 0.05974403 0.22000001
-0.13190612 0.059822485 0.22000001
-0.13042974 0.059972271 0.21999997
-0.12926576 0.060246147 0.22
-0.12991622 0.0611705 0.22000001
-0.1291288 0.061547089 0.22
-0.12818 0.063151255 0.22000001
-0.12717736 0.063224614 0.22000001
-0.1256368 0.063224614 0.22
-0.12403914 0.063681088 0.22000001
-0.12264121 0.063481383 0.22000001
-0.13830386 0.065449916 0.22
-0.13710561 0.065449916 0.22000001
-0.1270062 0.064422846 0.22
-0.1256368 0.064765207 0.21999997
-0.12392501 0.064765207 0.21999997
-0.12241147 0.064801238 0.22000001
-0.12092945 0.065193146 0.22000001
-0.11964562 0.065449916 0.22000001
-0.034570854 0.065107562 0.22000001
-0.13815713 0.065890081 0.22000001
-0.13688177 0.066397965 0.22000001
-0.12536292 0.065860733 0.22
-0.12384602 0.066081956 0.22000001
-0.12233553 0.066232435 0.22000001
-0.12081534 0.066448443 0.21999997
-0.11930326 0.066629119 0.22000001
-0.1175915 0.066990502 0.22000001
-0.11622208 0.067161679 0.22000001
-0.039021447 0.067161679 0.22000001
-0.03741239 0.066887796 0.22
-0.036510859 0.066476971 0.22000001
-0.13676327 0.067504033 0.22000001
-0.12029608 0.067777917 0.22
-0.11913206 0.068017557 0.22
-0.1175915 0.068017565 0.22000001
-0.11605091 0.068017572 0.22
-0.11452587 0.068250984 0.22000001
-0.11262737 0.068445504 0.22000001
-0.11125796 0.068359911 0.22
-0.10997413 0.068445504 0.22000001
-0.043814391 0.068531089 0.22000001
-0.042330861 0.06834089 0.22000001
-0.040604826 0.067846388 0.22000001
-0.039119262 0.067699663 0.22000001
-0.038079977 0.067589626 0.22000001
-0.11883253 0.069087416 0.22000001
-0.11755346 0.069482066 0.22000001
-0.11605092 0.069558151 0.21999997
-0.11433912 0.069558151 0.21999997
-0.11279855 0.069558144 0.22
-0.11125799 0.069558136 0.21999997
-0.10954619 0.069558151 0.21999997
-0.1081126 0.069665141 0.22000001
-0.045370538 0.069527023 0.22000001
-0.044099689 0.068987556 0.22000001
-0.042958509 0.068873443 0.22000001
-0.037523653 0.070114478 0.22000001
-0.036624976 0.070242859 0.22000001
-0.11707797 0.070585214 0.22000001
-0.1159694 0.071155801 0.22
-0.11433912 0.071269907 0.21999997
-0.11279855 0.071269922 0.22
-0.11125799 0.071269929 0.21999997
-0.10954618 0.071269922 0.21999997
-0.10800561 0.071269915 0.22
-0.10692149 0.071726389 0.22000001
-0.10041678 0.071726389 0.22000001
-0.051884145 0.071856804 0.22000001
-0.050465826 0.071856804 0.22000001
-0.048949689 0.071954623 0.22000001
-0.046809986 0.071869031 0.22000001
-0.046096742 0.071840502 0.22000001
-0.040305272 0.071869031 0.22000001
-0.039112743 0.071452498 0.22000001
-0.037652034 0.071269929 0.21999997
-0.036233716 0.071465544 0.22000001
-0.1153662 0.072296977 0.22000001
-0.11399678 0.072296977 0.22000001
-0.11277954 0.072525211 0.22000001
-0.11119754 0.072719887 0.22000001
-0.10954618 0.072810501 0.22
-0.10800561 0.072810508 0.22000001
-0.10646502 0.072810508 0.22
-0.1049376 0.072981678 0.22000001
-0.10321267 0.07332404 0.22000001
-0.10159598 0.072848536 0.22000001
-0.10047384 0.072810508 0.22000001
-0.05887793 0.07332404 0.22000001
-0.053204648 0.072883859 0.22000001
-0.052030873 0.072810508 0.22
-0.050319094 0.072810508 0.22
-0.048778508 0.072810508 0.22000001
-0.047237922 0.072810516 0.22
-0.045583215 0.072867565 0.22000001
-0.043985564 0.072981678 0.22000001
-0.042444982 0.072810508 0.22
-0.040733211 0.072810516 0.22
-0.039192628 0.072810508 0.22000001
-0.037652038 0.072810508 0.22
-0.036179915 0.072570853 0.22
-0.10937502 0.073666394 0.22000001
-0.10787722 0.073880367 0.22000001
-0.10642038 0.07429155 0.21999998
-0.10475326 0.074351095 0.21999997
-0.10321268 0.074351095 0.22
-0.10167208 0.07435108 0.21999997
-0.10006303 0.074488029 0.22
-0.098488189 0.074761912 0.22
-0.09695521 0.074883647 0.22000001
-0.095338546 0.075035803 0.22000001
-0.061616756 0.074864626 0.22
-0.059796881 0.07445921 0.22000001
-0.058402438 0.074427173 0.22000001
-0.057023522 0.074721977 0.22000001
-0.054997932 0.074978746 0.22000001
-0.053445928 0.074488036 0.22000001
-0.052030873 0.074351087 0.21999997
-0.050319094 0.074351095 0.21999997
-0.048778512 0.074351095 0.22
-0.047237922 0.07435108 0.21999997
-0.045526158 0.074351095 0.21999997
-0.043985568 0.074351095 0.22
-0.042589128 0.074206941 0.22000001
-0.11947444 0.076661982 0.22000001
-0.10458207 0.07537815 0.22000001
-0.10321267 0.075549319 0.22000001
-0.101615 0.075834632 0.22000001
-0.099915661 0.076003335 0.21999998
-0.098419711 0.076062858 0.22
-0.09687914 0.076062851 0.21999997
-0.095167369 0.076062873 0.21999997
-0.093706638 0.076245442 0.22000001
-0.092171781 0.076490805 0.22000001
-0.090502806 0.076619193 0.22000001
-0.089005016 0.076747566 0.22000001
-0.064697936 0.076747566 0.22000001
-0.062943377 0.076448008 0.22000001
-0.06161676 0.076062866 0.21999997
-0.059904981 0.076062858 0.21999997
-0.058364403 0.076062851 0.22
-0.056823816 0.076062858 0.21999997
-0.055112042 0.076062843 0.21999997
-0.053571455 0.076062866 0.22
-0.052030869 0.076062858 0.21999997
-0.050363749 0.076003328 0.21999998
-0.048802964 0.075818315 0.22000001
-0.047286831 0.075696051 0.22000001
-0.045526154 0.075549319 0.22
-0.044242334 0.075463742 0.22000001
-0.12228173 0.078048512 0.22
-0.12075257 0.0777518 0.22000001
-0.1195429 0.077534981 0.22
-0.098020308 0.077204041 0.22000001
-0.096756861 0.077432275 0.22000001
-0.095167361 0.077603452 0.22
-0.093626767 0.077603452 0.22000001
-0.092086181 0.077603444 0.22
-0.090374425 0.077603452 0.22
-0.088833816 0.077603452 0.22000001
-0.087350309 0.077660508 0.22000001
-0.085581474 0.077774629 0.22000001
-0.084040888 0.077774629 0.22000001
-0.082690492 0.077926785 0.22000001
-0.08078853 0.078116976 0.22000001
-0.079076767 0.078116976 0.22000001
-0.077578977 0.077988595 0.22000001
-0.076071672 0.07796482 0.22000001
-0.072400883 0.078116976 0.22000001
-0.071544997 0.078116976 0.22000001
-0.066281319 0.077988595 0.22000001
-0.064597234 0.077673942 0.22000001
-0.063157342 0.077603452 0.22000001
-0.06161676 0.077603452 0.22
-0.059904993 0.077603452 0.22
-0.058364403 0.077603459 0.22000001
-0.056823812 0.077603452 0.22
-0.055112042 0.077603459 0.22
-0.053610958 0.07748495 0.22000001
-0.052221064 0.077280119 0.22000001
-0.051003806 0.077089921 0.22000001
-0.11971898 0.078997314 0.22000001
-0.090100534 0.078527793 0.22
-0.088748239 0.07883022 0.22000001
-0.087264724 0.079115503 0.21999997
-0.085581474 0.079144031 0.21999997
-0.084040888 0.079144038 0.22
-0.082500294 0.079144038 0.21999997
-0.080788523 0.079144031 0.21999997
-0.079247952 0.079144038 0.22
-0.07770735 0.079144016 0.21999997
-0.075995587 0.079144031 0.21999997
-0.074455008 0.079144046 0.22
-0.072914407 0.079144016 0.21999997
-0.071202643 0.079144031 0.21999997
-0.069490887 0.079144031 0.21999997
-0.067950293 0.079144031 0.22
-0.0664097 0.079144038 0.21999997
-0.064697936 0.079144031 0.21999997
-0.063157335 0.079144038 0.22
-0.061661415 0.079084493 0.21999998
-0.059947781 0.078844473 0.22000001
-0.058411084 0.078770563 0.22000001
-0.0573944 0.078573443 0.22000001
-0.085410304 0.080171101 0.22000001
-0.084040888 0.080171101 0.22000001
-0.082424223 0.080323264 0.22000001
-0.080760002 0.08042787 0.22000001
-0.07935065 0.080239579 0.22
-0.077878527 0.080171101 0.22000001
-0.076166764 0.080171101 0.22000001
-0.074454993 0.080171101 0.22000001
-0.072914414 0.080171101 0.22
-0.071202643 0.080171101 0.22
-0.06949088 0.080171101 0.22
-0.067950293 0.080171101 0.22000001
-0.0664097 0.080171101 0.22
-0.064697936 0.080171101 0.22
-0.063499704 0.080171101 0.22000001
-0.086658306 -0.10242424 0.22100002
-0.085534878 -0.10279108 0.22099997
-0.083998747 -0.10279109 0.22099997
-0.082359433 -0.1025962 0.22099999
-0.080811851 -0.1025225 0.22099999
-0.079012938 -0.10271525 0.22099997
-0.077591598 -0.10273688 0.22099997
-0.076144502 -0.1025225 0.22099999
-0.074375823 -0.10257162 0.22099999
-0.072822563 -0.10271525 0.22099997
-0.071182385 -0.10259619 0.22099999
-0.069619164 -0.1027369 0.22099997
-0.068087205 -0.10276816 0.22099997
-0.066430181 -0.10264309 0.22099997
-0.064923234 -0.10249303 0.221
-0.063960284 -0.10242424 0.22100002
-0.058801647 -0.10242424 0.22100002
-0.097921334 -0.10113458 0.22100002
-0.096803635 -0.10139251 0.22099997
-0.095256031 -0.10156447 0.22099999
-0.093572691 -0.10153732 0.22099997
-0.091988891 -0.10139251 0.22099997
-0.090441301 -0.10122056 0.22099999
-0.088635772 -0.10130654 0.22099997
-0.08713977 -0.10153008 0.22099997
-0.085567586 -0.10151203 0.22109093
-0.083979875 -0.10140851 0.2212593
-0.082359433 -0.10156447 0.22099997
-0.080811851 -0.10156447 0.22099999
-0.079092287 -0.10156447 0.22099999
-0.077544704 -0.10156447 0.22099997
-0.075997114 -0.10156447 0.22099999
-0.074449517 -0.10156447 0.22099997
-0.072901942 -0.10156447 0.22099999
-0.071182385 -0.10156447 0.22099999
-0.069634788 -0.10156447 0.22099997
-0.068087205 -0.10156447 0.22099999
-0.066367649 -0.10156447 0.22099999
-0.064820059 -0.10156447 0.22099997
-0.063308671 -0.10153732 0.22099997
-0.061577491 -0.10136794 0.22099997
-0.060005322 -0.10156447 0.22099997
-0.05845774 -0.10156447 0.22099999
-0.056923375 -0.10139251 0.22099997
-0.055534508 -0.1010486 0.22100002
-0.10161836 -0.099329054 0.22100002
-0.099947944 -0.099672966 0.22099997
-0.098351233 -0.10001685 0.22100002
-0.096766904 -0.099989049 0.22104762
-0.095224239 -0.099931076 0.22116672
-0.093573771 -0.09999413 0.22114819
-0.091988876 -0.10001685 0.22099999
-0.090441316 -0.10001687 0.22100002
-0.088721752 -0.10001687 0.22100002
-0.087151825 -0.099989049 0.22104761
-0.085644007 -0.10002003 0.22142433
-0.083939672 -0.099963017 0.22195005
-0.082392149 -0.10004687 0.22128573
-0.080811851 -0.10001686 0.22100002
-0.079066187 -0.099994414 0.22103851
-0.077539012 -0.099931881 0.22124003
-0.076028317 -0.10011214 0.22159383
-0.074466459 -0.10013096 0.22165224
-0.072924778 -0.10013323 0.22132003
-0.071190581 -0.10009801 0.22156258
-0.069619693 -0.10006957 0.22150005
-0.068105444 -0.10003958 0.22143342
-0.06640663 -0.10011524 0.22161299
-0.064803712 -0.10001898 0.22131823
-0.06330315 -0.099954292 0.2211072
-0.061552912 -0.10001686 0.22100002
-0.06000533 -0.10001685 0.22099999
-0.058457732 -0.10001685 0.22100002
-0.056738194 -0.10001684 0.22100002
-0.055217754 -0.099980652 0.22099997
-0.053775284 -0.099646494 0.22099997
-0.051923461 -0.09948191 0.22099999
-0.050375868 -0.099501014 0.22099999
-0.049073927 -0.099476449 0.22099999
-0.10591722 -0.097609505 0.22100002
-0.10467055 -0.097781464 0.22099999
-0.10306277 -0.098159775 0.22099999
-0.10161835 -0.098297343 0.22099999
-0.10007075 -0.09829732 0.22100002
-0.09839309 -0.098297186 0.22142433
-0.096695676 -0.098423801 0.22170009
-0.095205747 -0.098424673 0.22195244
-0.093611278 -0.098392546 0.22196008
-0.092057593 -0.09840636 0.22165224
-0.090495668 -0.098451316 0.22168757
-0.088768438 -0.098494694 0.22183341
-0.087214999 -0.098494716 0.22183339
-0.085697353 -0.098425426 0.22200008
-0.08395768 -0.098528259 0.22200008
-0.08232905 -0.09845423 0.22200006
-0.080828667 -0.098494701 0.22183341
-0.07910262 -0.098494716 0.22183342
-0.077550136 -0.098396651 0.22200008
-0.076040603 -0.098456725 0.22200008
-0.074402556 -0.098473422 0.22200006
-0.07291925 -0.098265044 0.22200008
-0.071159005 -0.098396637 0.22200008
-0.069604404 -0.098396651 0.22200008
-0.068049811 -0.098396637 0.22200008
-0.066322476 -0.098396637 0.22200008
-0.064767912 -0.098396651 0.22200008
-0.063189141 -0.098419264 0.2219616
-0.061593309 -0.098442987 0.22164005
-0.0600564 -0.098360501 0.22164294
-0.058406066 -0.098485023 0.22177427
-0.056733944 -0.098389618 0.22152004
-0.055244718 -0.098243549 0.22109093
-0.053643007 -0.098297335 0.22100002
-0.051923458 -0.09829732 0.22100002
-0.050375871 -0.098297343 0.22099999
-0.048828267 -0.098297328 0.22100002
-0.047403511 -0.098100804 0.22099997
-0.10755079 -0.096319839 0.22100002
-0.10639869 -0.096715331 0.22099997
-0.10488547 -0.096749723 0.22099999
-0.10315349 -0.096695803 0.22124004
-0.10158417 -0.096788734 0.22158338
-0.10007013 -0.096941039 0.22169571
-0.098478794 -0.096862227 0.22195244
-0.096723445 -0.096842051 0.22200008
-0.095168851 -0.096842051 0.22200006
-0.09361425 -0.096842051 0.22200008
-0.092059672 -0.096842051 0.22200006
-0.090505093 -0.096842051 0.22200008
-0.088885717 -0.096950009 0.22200006
-0.08722315 -0.097360253 0.22200002
-0.086359486 -0.097360253 0.22200002
-0.08186844 -0.097360253 0.22200002
-0.080832042 -0.097360253 0.22200003
-0.079104722 -0.097360253 0.22200003
-0.077895582 -0.097360253 0.22200002
-0.072598457 -0.097245097 0.22200002
-0.071159013 -0.097187519 0.22200003
-0.069535315 -0.097083881 0.22200003
-0.068013452 -0.096869327 0.22200008
-0.066322491 -0.096842051 0.22200008
-0.064767897 -0.096842051 0.22200006
-0.063213304 -0.096842051 0.22200008
-0.061658714 -0.096842051 0.22200006
-0.060104121 -0.096842051 0.22200008
-0.058376789 -0.096842051 0.22200008
-0.056822188 -0.096842051 0.22200006
-0.055248629 -0.096836828 0.22185719
-0.053603146 -0.096762843 0.22139132
-0.051923461 -0.096749723 0.22099999
-0.050375875 -0.096749723 0.22099997
-0.048828278 -0.096749723 0.22099999
-0.047108732 -0.09674973 0.22099999
-0.045600824 -0.096630685 0.22099997
-0.044204608 -0.096424922 0.22099999
-0.040402502 -0.096233867 0.22100002
-0.03919882 -0.096233867 0.221
-0.11394178 -0.094628952 0.22100002
-0.1127381 -0.094972841 0.22099997
-0.11120962 -0.095125698 0.22099997
-0.10970023 -0.095202133 0.22100002
-0.1079596 -0.095178828 0.22103851
-0.10638335 -0.095115177 0.22137938
-0.10487752 -0.095358618 0.22158626
-0.10331651 -0.095332101 0.221926
-0.10157818 -0.095487453 0.22200008
-0.099966995 -0.09536422 0.22200006
-0.098450795 -0.095287465 0.22200008
-0.096768513 -0.095347539 0.22200008
-0.095203392 -0.095494732 0.22200006
-0.093640842 -0.095686071 0.22200005
-0.092059672 -0.095632918 0.22200005
-0.090591438 -0.095719285 0.22200005
-0.067358889 -0.095978387 0.22200002
-0.066322491 -0.095978387 0.22200003
-0.064767897 -0.095978387 0.22200002
-0.063213304 -0.095978387 0.22200003
-0.061555069 -0.09590929 0.22200003
-0.059956066 -0.095879681 0.22200002
-0.058313977 -0.09575855 0.22200003
-0.056772836 -0.095534213 0.22200005
-0.055222522 -0.095347539 0.22200008
-0.053540263 -0.095287465 0.22200008
-0.05194664 -0.095387876 0.22183339
-0.050469197 -0.095235415 0.22156006
-0.048828274 -0.095202148 0.22100002
-0.047108736 -0.095202141 0.22100002
-0.045561139 -0.095202126 0.22099999
-0.044013545 -0.095202141 0.22100002
-0.042294003 -0.095202118 0.22100002
-0.040660433 -0.095331095 0.22099997
-0.03919882 -0.095202133 0.22100002
-0.037774052 -0.095005631 0.22099997
-0.036791451 -0.094514318 0.22100002
-0.11554669 -0.093335204 0.22099999
-0.11434299 -0.093654558 0.22099997
-0.1127954 -0.093654558 0.22099999
-0.11122196 -0.093502969 0.22156674
-0.10953407 -0.093632355 0.22168756
-0.107957 -0.0936822 0.22180006
-0.10642525 -0.093588911 0.22200008
-0.10492826 -0.093876787 0.22200005
-0.10363277 -0.094251059 0.22200002
-0.098105319 -0.094251059 0.22200002
-0.054576669 -0.094251059 0.22200002
-0.053383246 -0.093999796 0.22200003
-0.051914554 -0.093661726 0.22200006
-0.050431095 -0.093560129 0.22200008
-0.048708625 -0.09348385 0.22153848
-0.047118068 -0.093499906 0.2212308
-0.045549169 -0.093424171 0.22140747
-0.044047244 -0.093601592 0.22155561
-0.042440768 -0.093633555 0.22176673
-0.040853489 -0.093529314 0.22140913
-0.03919882 -0.093654558 0.22099999
-0.037651226 -0.093654566 0.22099997
-0.036164317 -0.093563519 0.22099997
-0.034513049 -0.093267657 0.22099999
-0.11902876 -0.091634072 0.22099999
-0.11752826 -0.091992304 0.22099999
-0.1158906 -0.092106953 0.22100002
-0.11431006 -0.092077434 0.22104762
-0.11276097 -0.092049137 0.22125007
-0.11128125 -0.092061639 0.22190915
-0.10950567 -0.092005514 0.22200008
-0.10798562 -0.092040069 0.22200006
-0.10697225 -0.092408575 0.22200002
-0.051467478 -0.092523731 0.22200002
-0.050394714 -0.09203279 0.22200008
-0.048703752 -0.092005514 0.22200008
-0.047125567 -0.092093222 0.22188894
-0.045594569 -0.092005514 0.22200008
-0.044039968 -0.092005521 0.22200006
-0.042485371 -0.092005514 0.22200008
-0.040725734 -0.092077263 0.22190915
-0.039098706 -0.092485338 0.22108333
-0.037678018 -0.092049226 0.22136003
-0.036103629 -0.092106946 0.22100002
-0.034384083 -0.092106946 0.22100002
-0.032943968 -0.091999471 0.22099997
-0.031976722 -0.091419138 0.22100002
-0.12036143 -0.090202227 0.22099997
-0.11914465 -0.090265386 0.22129638
-0.11761414 -0.090380348 0.22128578
-0.11595024 -0.090350501 0.2213334
-0.11437456 -0.090510197 0.2217501
-0.11297216 -0.090492554 0.22193338
-0.11103148 -0.090681255 0.22200005
-0.10985114 -0.090882771 0.22200002
-0.10829654 -0.091141872 0.22200002
-0.049912885 -0.091141872 0.22200002
-0.048780527 -0.090988331 0.22200002
-0.047149163 -0.091141872 0.22200002
-0.043521773 -0.091141872 0.22200002
-0.042325933 -0.090796404 0.22200005
-0.040710948 -0.090545148 0.22200008
-0.039241847 -0.090374179 0.22200006
-0.037648857 -0.090450957 0.22200008
-0.035936151 -0.090486147 0.2217858
-0.03433793 -0.090424381 0.22138467
-0.032888271 -0.090348817 0.22113638
-0.031370789 -0.090272769 0.22099999
-0.030027902 -0.089928865 0.221
-0.1234566 -0.088323958 0.22100002
-0.12217475 -0.088636607 0.22099997
-0.12069992 -0.088748999 0.22143342
-0.11919776 -0.088747941 0.22196163
-0.11762414 -0.088723622 0.22200008
-0.11606953 -0.08872363 0.22200008
-0.11434221 -0.08872363 0.22200008
-0.11281488 -0.088759989 0.22200008
-0.11157846 -0.089069068 0.22200003
-0.039053757 -0.088815741 0.22200006
-0.03764886 -0.08872363 0.22200008
-0.035921525 -0.08872363 0.22200008
-0.034366943 -0.08872363 0.22200008
-0.032836195 -0.088716619 0.22188008
-0.031308353 -0.088768907 0.22113639
-0.029670509 -0.088769019 0.22099997
-0.028537627 -0.088323958 0.22100002
-0.12827133 -0.086604409 0.22100002
-0.12705439 -0.08694832 0.22099997
-0.1254873 -0.087161206 0.22099999
-0.12397246 -0.087292209 0.22099999
-0.12240519 -0.08724983 0.22114292
-0.12096111 -0.087275505 0.22170375
-0.11928029 -0.087240145 0.22200006
-0.11762411 -0.087514475 0.22200002
-0.11601638 -0.087394886 0.22200005
-0.11449026 -0.087588504 0.22200002
-0.11330579 -0.087687217 0.22200002
-0.038685258 -0.087514482 0.22200002
-0.037796915 -0.087588504 0.22200002
-0.035230603 -0.087687217 0.22200002
-0.034273926 -0.087262027 0.22200005
-0.032812349 -0.087169029 0.22200008
-0.031160315 -0.087310567 0.22171433
-0.029616354 -0.087217264 0.22117248
-0.02805998 -0.087215789 0.22099997
-0.026560152 -0.086862348 0.22099997
-0.024926582 -0.086604409 0.22100002
-0.12856235 -0.085493326 0.22099997
-0.12723961 -0.085572697 0.22100002
-0.12552004 -0.085572697 0.22100002
-0.12395285 -0.085469179 0.22137941
-0.12252891 -0.085711457 0.22167863
-0.12104037 -0.085806362 0.22200006
-0.11969691 -0.086305358 0.22200002
-0.033963893 -0.085902311 0.22200002
-0.032812346 -0.085614435 0.22200008
-0.031257749 -0.085614435 0.22200008
-0.029671548 -0.085639283 0.22196163
-0.028080167 -0.085576855 0.22145838
-0.026474172 -0.085572697 0.22100002
-0.024783283 -0.085544027 0.22100002
-0.0237229 -0.085056819 0.22100002
-0.12858398 -0.084009461 0.22099997
-0.1272012 -0.084002063 0.22104761
-0.12560113 -0.084060721 0.22148158
-0.12403778 -0.084082745 0.22195244
-0.12271012 -0.084194183 0.22200002
-0.032380514 -0.084491663 0.22200002
-0.031171383 -0.08420378 0.22200005
-0.029703151 -0.084059834 0.22200008
-0.027975831 -0.084059834 0.22200008
-0.026503906 -0.083994314 0.22158827
-0.024748866 -0.083942354 0.2211
-0.023321673 -0.083910458 0.22099997
-0.022347262 -0.083509229 0.22100002
-0.13342996 -0.08178968 0.22100002
-0.1319779 -0.081942528 0.22099999
-0.13021196 -0.082133584 0.22099997
-0.12872598 -0.082381368 0.22116672
-0.12715533 -0.082499899 0.22148655
-0.1256002 -0.08253666 0.22195244
-0.12421263 -0.082801342 0.22200005
-0.030739551 -0.082677968 0.22200002
-0.029703153 -0.082735538 0.22200006
-0.027942924 -0.082636833 0.22200008
-0.026421238 -0.082505226 0.22200008
-0.024806067 -0.082535855 0.22178578
-0.023252867 -0.082434021 0.22113638
-0.021704303 -0.082417689 0.221
-0.020031607 -0.082156517 0.22099997
-0.018908169 -0.08178968 0.22100002
-0.13473682 -0.080517218 0.22099999
-0.13360193 -0.080757961 0.22099999
-0.13198262 -0.080698386 0.2211072
-0.13042413 -0.080810577 0.22150008
-0.12886322 -0.080849454 0.22189294
-0.12712441 -0.080777891 0.22200008
-0.12556982 -0.080777898 0.22200008
-0.1243319 -0.080518804 0.22200005
-0.026100444 -0.080975309 0.22200002
-0.024866639 -0.080777891 0.22200008
-0.023194104 -0.080759853 0.22183341
-0.021657644 -0.080746733 0.22111541
-0.019939898 -0.080757953 0.22100002
-0.018430516 -0.080681533 0.22099997
-0.016982276 -0.080276482 0.22099999
-0.13635319 -0.078694493 0.22100002
-0.13511331 -0.079183199 0.22099997
-0.13360195 -0.079210348 0.22099997
-0.13201685 -0.079222426 0.22151619
-0.13040635 -0.079223312 0.22200006
-0.12885174 -0.079223305 0.22200008
-0.1271244 -0.079223305 0.22200008
-0.12556982 -0.079223312 0.22200006
-0.12425439 -0.079316333 0.22200005
-0.026110316 -0.079396047 0.22200003
-0.024830274 -0.079250582 0.22200008
-0.023139313 -0.079223305 0.22200008
-0.021530431 -0.079259232 0.22183341
-0.019981539 -0.079203248 0.22109525
-0.018392306 -0.079210356 0.22099997
-0.01684471 -0.079210356 0.22099999
-0.015812986 -0.078866452 0.22100002
-0.13803835 -0.077250071 0.221
-0.13679092 -0.077584587 0.221
-0.13514952 -0.077662751 0.22100002
-0.13354599 -0.077631749 0.22145168
-0.13203233 -0.077729471 0.22189294
-0.13040633 -0.077668704 0.22200008
-0.12885171 -0.077668697 0.22200008
-0.12725875 -0.077860631 0.22200006
-0.12582892 -0.078273281 0.22200002
-0.024348442 -0.078359649 0.22200002
-0.022888064 -0.078045599 0.22200003
-0.021584718 -0.077668704 0.22200008
-0.019978724 -0.077701993 0.22168975
-0.018384423 -0.077567555 0.22132003
-0.01688909 -0.077662855 0.22104003
-0.015744204 -0.077731542 0.221
-0.13962035 -0.075451918 0.22099999
-0.13836172 -0.075874195 0.22104999
-0.13684657 -0.07589408 0.22144453
-0.1352538 -0.076060757 0.22169235
-0.13366185 -0.075896271 0.22195658
-0.13196091 -0.075941369 0.22200008
-0.13040633 -0.075941384 0.22200008
-0.12922601 -0.076114118 0.22200005
-0.022448381 -0.07559593 0.22200002
-0.021584719 -0.075941406 0.22200008
-0.020030124 -0.075941399 0.22200008
-0.018302796 -0.075941391 0.22200008
-0.016871583 -0.075743981 0.22200005
-0.015065107 -0.075699382 0.22129412
-0.013611967 -0.075736873 0.22099997
-0.012488529 -0.075484671 0.221
-0.1413781 -0.074147254 0.22099999
-0.13992861 -0.074370518 0.22104762
-0.13834234 -0.074343637 0.22140005
-0.13686648 -0.07441888 0.22190915
-0.13524283 -0.07438679 0.22200006
-0.13368824 -0.074386798 0.22200008
-0.13201851 -0.074444383 0.22200006
-0.13066544 -0.074818626 0.22200002
-0.034539673 -0.073868603 0.22200002
-0.021537609 -0.074590921 0.22200003
-0.020030122 -0.074386805 0.22200008
-0.018302796 -0.074386798 0.22200008
-0.016748201 -0.074386798 0.22200006
-0.01512251 -0.074367493 0.22160874
-0.013577575 -0.074395634 0.22099997
-0.012066184 -0.074368462 0.22099997
-0.010998255 -0.073879771 0.22100002
-0.14291205 -0.072504126 0.22099999
-0.14162126 -0.072926208 0.221
-0.13984561 -0.072822757 0.22134294
-0.1384048 -0.072880551 0.22190915
-0.13682623 -0.072861008 0.22200008
-0.13527738 -0.073039494 0.22200006
-0.13373759 -0.073202357 0.22200005
-0.13265185 -0.073523134 0.22200002
-0.034079049 -0.073292822 0.22200002
-0.032704387 -0.072767437 0.22200006
-0.031603217 -0.072774619 0.22200002
-0.019511925 -0.073523134 0.22200002
-0.018091679 -0.072928175 0.22200006
-0.016748199 -0.072832212 0.22200008
-0.015193608 -0.072832219 0.22200008
-0.013621319 -0.072908156 0.22170837
-0.012060864 -0.072833426 0.22107697
-0.010654344 -0.072725222 0.22099997
-0.14417714 -0.070870563 0.22100002
-0.14320423 -0.071092285 0.22099997
-0.14168379 -0.071128488 0.22100002
-0.14000411 -0.0711236 0.22159468
-0.13835204 -0.071104877 0.22200008
-0.13737322 -0.071392767 0.22200002
-0.031085018 -0.071795806 0.22200002
-0.017750051 -0.071519434 0.22200003
-0.016772877 -0.071647756 0.22200002
-0.015133526 -0.071149938 0.22200008
-0.01363901 -0.071104877 0.22200008
-0.012010914 -0.071153343 0.22116669
-0.010310437 -0.071128495 0.22100002
-0.0088722697 -0.070784576 0.22099997
-0.007645139 -0.070526645 0.22100002
-0.14446633 -0.069440208 0.22099997
-0.14323138 -0.069580898 0.22099997
-0.14181277 -0.069666877 0.22099997
-0.13987532 -0.069799855 0.22173338
-0.13859387 -0.069619372 0.22200003
-0.014848142 -0.069550276 0.22200005
-0.013639013 -0.069550276 0.22200006
-0.012089652 -0.069550276 0.22126091
-0.010310436 -0.06958089 0.22099999
-0.0087628448 -0.069580898 0.22099997
-0.007460902 -0.069531761 0.22099997
-0.14592533 -0.067460127 0.22100002
-0.14477898 -0.068033323 0.22100002
-0.14323138 -0.068033323 0.22099999
-0.14175689 -0.067951187 0.2215589
-0.1400146 -0.068038858 0.22200006
-0.13887024 -0.068686619 0.22200002
-0.014640862 -0.06841024 0.22200003
-0.013611739 -0.068032041 0.22200008
-0.012042173 -0.068049416 0.22192602
-0.010338688 -0.068044566 0.22160007
-0.0088016717 -0.067994855 0.22118185
-0.0073090461 -0.067986421 0.221
-0.14642036 -0.066235594 0.221
-0.14477898 -0.066313758 0.22100002
-0.14315332 -0.066327989 0.22126928
-0.14177737 -0.066516221 0.22182614
-0.14048243 -0.066844136 0.22200002
-0.013120813 -0.066959292 0.22200002
-0.01198281 -0.066512212 0.22200006
-0.010357089 -0.066441074 0.22200008
-0.008713535 -0.066370733 0.22152942
-0.0072152521 -0.066313758 0.22100002
-0.0056185299 -0.065969862 0.22099997
-0.0044639776 -0.065625943 0.22100002
-0.14791715 -0.064465247 0.22099999
-0.14643316 -0.064729989 0.2210909
-0.1447721 -0.064744622 0.22151729
-0.1432727 -0.064956196 0.2218637
-0.14194804 -0.065200567 0.22200003
-0.011969263 -0.064804234 0.22200008
-0.01035709 -0.064886481 0.22200008
-0.0087987641 -0.064857028 0.22190006
-0.0072232126 -0.064663678 0.22124004
-0.0054957056 -0.064766169 0.22099999
-0.004040705 -0.064673573 0.22099997
-0.0030883409 -0.064250305 0.22100002
-0.15100756 -0.062798239 0.22099999
-0.14951184 -0.063103952 0.22099999
-0.14799942 -0.063107915 0.22116669
-0.1464745 -0.06320633 0.22151357
-0.14479977 -0.063216686 0.22196008
-0.1435916 -0.063734941 0.22200002
-0.011825317 -0.063475847 0.22200005
-0.010312028 -0.063219242 0.22200008
-0.008802495 -0.06315916 0.22200008
-0.0072479011 -0.063159168 0.22200008
-0.0055157035 -0.063274138 0.22180007
-0.0039755418 -0.063157685 0.22126091
-0.0025533708 -0.063046619 0.22099997
-0.0013687942 -0.062530756 0.22100002
-0.15215391 -0.061422605 0.22099999
-0.1511413 -0.061499022 0.22099999
-0.14959371 -0.061499029 0.22100002
-0.14815466 -0.061587047 0.22159268
-0.14647049 -0.061604578 0.22200008
-0.14512004 -0.061651673 0.22200003
-0.0096661588 -0.06212277 0.22200002
-0.008802495 -0.061604563 0.22200006
-0.0072479011 -0.061604578 0.22200008
-0.0055205729 -0.061604578 0.22200008
-0.0039345832 -0.061638825 0.22194123
-0.0024036267 -0.06156531 0.22124004
-0.00092373515 -0.061397888 0.22099997
6.8429217e-06 -0.06081121 0.22100002
-0.15227619 -0.059882652 0.22099999
-0.1511413 -0.059951436 0.22099997
-0.14947622 -0.059939083 0.22116672
-0.14811872 -0.06005092 0.22180006
-0.14656471 -0.060097098 0.22200008
-0.14543408 -0.060740907 0.22200002
-0.0087094856 -0.060315721 0.22200005
-0.0072287079 -0.060222719 0.22200006
-0.0055205734 -0.060049981 0.22200008
-0.003965979 -0.060049981 0.22200008
-0.0024542878 -0.060039431 0.2217392
-0.00085293042 -0.059951428 0.22099997
0.00022178623 -0.059822474 0.22099999
-0.15255132 -0.058300674 0.22099999
-0.15109694 -0.058289554 0.22116669
-0.14959607 -0.058401167 0.2215001
-0.14805666 -0.058530468 0.22194123
-0.14696948 -0.058514576 0.22200002
-0.0053478405 -0.058476195 0.22200006
-0.0039659785 -0.058322661 0.22200008
-0.0024062349 -0.058312975 0.22144005
-0.00085293048 -0.058403842 0.22099999
0.00053990231 -0.058335058 0.22099999
-0.1538066 -0.056598321 0.22100002
-0.15268889 -0.056856256 0.22099999
-0.15129545 -0.0568083 0.22169238
-0.14965646 -0.056729674 0.22200006
-0.14828418 -0.056336228 0.22200002
-0.0048296424 -0.057286255 0.22200002
-0.0039314325 -0.056802604 0.22200006
-0.0023925712 -0.056801338 0.22171433
-0.00085293036 -0.056856256 0.22099997
0.00057328172 -0.056866366 0.22099997
-0.15426362 -0.05516386 0.22099997
-0.15268889 -0.055308666 0.22100002
-0.15122561 -0.055210877 0.22165525
-0.1495797 -0.055213463 0.22200008
-0.14822248 -0.055262808 0.22200005
-0.0035773301 -0.055299833 0.22200002
-0.0024098342 -0.055232506 0.22180007
-0.00085293024 -0.055308662 0.22099999
0.00056364841 -0.055275917 0.22099999
0.0017263894 -0.054620843 0.22100002
-0.15544017 -0.05410498 0.22100002
-0.15440843 -0.053589106 0.22100002
-0.15265186 -0.053578075 0.2211072
-0.15133774 -0.053724524 0.22186963
-0.14957969 -0.053658854 0.22200008
-0.14845692 -0.053917967 0.22200002
-0.0035168738 -0.053762507 0.22200003
-0.0023773755 -0.05366512 0.22185721
-0.00085324002 -0.053601086 0.22104999
0.00069466158 -0.053589109 0.22100002
0.0023110355 -0.053451546 0.22099999
0.0034459361 -0.052901298 0.22100002
-0.15423647 -0.052041523 0.22099997
-0.15276514 -0.052050136 0.2214445
-0.15130703 -0.052104272 0.22200008
-0.15001149 -0.052133065 0.22200005
-0.0023949335 -0.052120738 0.22200008
-0.00085678976 -0.052104283 0.22200008
0.00069692713 -0.052056771 0.22180006
0.0023818272 -0.052011609 0.22104762
0.0038185043 -0.05195554 0.22099997
-0.15544017 -0.049806114 0.22100002
-0.15426728 -0.050338853 0.22120695
-0.152898 -0.050479967 0.22164293
-0.15133581 -0.050405726 0.22200008
-0.1502706 -0.050895147 0.22200002
-0.0019507637 -0.050837573 0.22200002
-0.00085678976 -0.050376944 0.22200008
0.00056619896 -0.05040985 0.22200008
0.0025469314 -0.050553687 0.2211905
0.0039617997 -0.050493937 0.22099999
0.0048215729 -0.04997807 0.22100002
-0.1568158 -0.048086569 0.22100002
-0.15590006 -0.048378225 0.22111112
-0.15453508 -0.04886473 0.221613
-0.15289615 -0.048856895 0.22200006
-0.15185973 -0.049064178 0.22200003
-0.00056890189 -0.049225394 0.22200002
0.00069780485 -0.048822347 0.22200008
0.0024647245 -0.048770454 0.22140913
0.0039618001 -0.048774391 0.22099999
0.005079505 -0.048688408 0.22099997
-0.15853535 -0.046710931 0.22100002
-0.15740247 -0.047155987 0.22099997
-0.15586653 -0.047225721 0.2214445
-0.15441614 -0.04726775 0.22200008
-0.15320706 -0.047613222 0.22200002
0.00082941068 -0.047300652 0.22200008
0.0023919237 -0.047225308 0.22166671
0.0039618001 -0.04722679 0.22099997
0.0055093919 -0.047226787 0.22099999
0.0071495743 -0.047001932 0.22099997
-0.15910278 -0.04555884 0.22099999
-0.15743513 -0.045588598 0.22113799
-0.15605147 -0.045663647 0.22164294
-0.15439151 -0.045861222 0.22200005
-0.15326464 -0.045079809 0.22200002
-0.00033859158 -0.0448495 0.22200002
0.00063772389 -0.045585502 0.22200008
0.0025296635 -0.045651477 0.22195658
0.0039625792 -0.045689464 0.22104998
0.0055093919 -0.0456792 0.22100002
0.0072002783 -0.045707867 0.22100002
0.0082606664 -0.046195067 0.22100002
-0.16035315 -0.043812264 0.22099999
-0.1591977 -0.043940727 0.22103851
-0.15756866 -0.044043243 0.22153132
-0.15597078 -0.04398584 0.22200006
-0.15441617 -0.04398584 0.22200008
-0.1532416 -0.044227663 0.22200003
-0.00080743752 -0.043911811 0.22200005
0.00069780485 -0.04398584 0.22200008
0.0024204529 -0.043916613 0.22165003
0.0039617997 -0.043959651 0.22099999
0.0055093928 -0.043959655 0.22100002
0.0067703929 -0.044418201 0.221
-0.16042686 -0.042412065 0.22099999
-0.15913688 -0.042459618 0.22113048
-0.15762492 -0.042410851 0.22183342
-0.15599804 -0.042467605 0.22200008
-0.15471847 -0.042906255 0.22200002
-0.00072244206 -0.042853475 0.22200002
0.00074286555 -0.042491321 0.22200008
0.0024234476 -0.042408112 0.22188008
0.0039323717 -0.042372543 0.2210588
0.0054731909 -0.042384919 0.22099997
0.0070139952 -0.042068154 0.22099999
-0.16042683 -0.040864475 0.22099999
