# .PCD v0.7 - Point Cloud Data file format
VERSION 0.7
FIELDS x y z
SIZE 4 4 4
TYPE F F F
COUNT 1 1 1
WIDTH 1357
HEIGHT 1
VIEWPOINT 0 0 0 1 0 0 0
POINTS 1357
DATA ascii
0.079134174 -0.096727073 0.22700009
0.080732673 -0.096741825 0.22694738
0.082261823 -0.096753754 0.22637503
0.084060922 -0.096828505 0.22600003
0.08564353 -0.096828483 0.22600006
0.08722613 -0.096828483 0.22600003
0.088808738 -0.096828505 0.22600006
0.090391338 -0.096828476 0.22600003
0.091920011 -0.096717738 0.22608338
0.093403444 -0.096832812 0.22605559
0.095291339 -0.097149923 0.22684616
0.09679731 -0.09680488 0.22671881
0.098410264 -0.096746929 0.22652002
0.099956676 -0.096666306 0.22651726
0.10164542 -0.096828505 0.22600003
0.10322803 -0.09682849 0.22600006
0.10481063 -0.096828483 0.22600003
0.10639323 -0.096828483 0.22600006
0.10787241 -0.096756093 0.22600006
0.10978349 -0.096727073 0.22700001
0.11127958 -0.096727088 0.22700009
0.1128692 -0.096727081 0.22700004
0.1144588 -0.096727073 0.22700009
0.11604838 -0.096727081 0.22700004
0.11763804 -0.096727066 0.22700009
0.11930437 -0.096793815 0.22686963
0.12075648 -0.096708462 0.22659999
0.12239663 -0.096681811 0.22689475
0.12399644 -0.096727066 0.22700009
0.12558606 -0.096727073 0.22700004
0.12717566 -0.096727073 0.22700009
0.1288511 -0.096796103 0.22670373
0.13033742 -0.096633703 0.22678268
0.13194446 -0.096727073 0.22700004
0.1335341 -0.096727088 0.22700009
0.13512957 -0.096879773 0.22694445
0.13671516 -0.096823491 0.22660719
0.13840762 -0.096342809 0.22657897
0.14003687 -0.096425459 0.22629416
0.1415589 -0.096700922 0.22615796
0.14304718 -0.096805565 0.22623083
0.14487287 -0.097019449 0.22685716
0.14624134 -0.096841037 0.22616668
0.1480685 -0.09682849 0.22600003
0.14965113 -0.09682849 0.22600006
0.15130095 -0.09674798 0.22626089
0.15275595 -0.096636571 0.22636004
0.15439892 -0.09682849 0.22600003
0.15598154 -0.09682849 0.22600006
0.15756415 -0.096828483 0.22600003
0.15914676 -0.096828498 0.22600006
0.16070881 -0.096799359 0.22640003
0.16232365 -0.096727081 0.22700004
0.16391326 -0.096727066 0.22700009
0.16551596 -0.096867628 0.22625926
0.16723563 -0.096828505 0.22600006
0.16940437 -0.096945725 0.22600003
0.17040081 -0.09682849 0.22600006
0.17198345 -0.096828483 0.22600003
0.17356601 -0.09682849 0.22600006
0.17514867 -0.09682849 0.22600003
0.176681 -0.096753128 0.22600006
0.17837244 -0.096769869 0.22600004
0.18007231 -0.096828505 0.22600003
0.1816549 -0.096828505 0.22600006
0.18323754 -0.09682849 0.22600003
0.1848201 -0.096828498 0.22600006
0.18640274 -0.096828476 0.22600003
0.18798532 -0.096828483 0.22600006
0.18956795 -0.096828483 0.22600003
0.19115055 -0.09682849 0.22600006
0.19273315 -0.096828483 0.22600003
0.19449161 -0.096828476 0.22600003
0.19607419 -0.096828483 0.22600006
0.19765683 -0.09682849 0.22600003
0.19920424 -0.09686365 0.22600006
0.20042637 -0.097048298 0.22600004
0.017041348 -0.095078588 0.22700003
0.018375834 -0.095137492 0.22700004
0.01996544 -0.095137477 0.22700001
0.021555044 -0.095137462 0.22700004
0.023144655 -0.094960846 0.22700001
0.024637921 -0.094896622 0.22700001
0.026359195 -0.095102146 0.22700001
0.027913477 -0.095137469 0.22700004
0.029326465 -0.095465481 0.22700001
0.045929033 -0.095667332 0.22700001
0.047241092 -0.095515952 0.22700001
0.057034209 -0.09520369 0.22700001
0.058574867 -0.095294945 0.22672734
0.059989877 -0.095197171 0.22644451
0.061538644 -0.095268793 0.22634618
0.063208088 -0.095176138 0.22695242
0.064680524 -0.095078588 0.22700001
0.066593938 -0.094607599 0.22700001
0.068102032 -0.095042385 0.22700001
0.069596529 -0.095137469 0.22700004
0.07118614 -0.095137462 0.22700001
0.072775744 -0.095137469 0.22700004
0.074365355 -0.095137484 0.22700001
0.075954959 -0.095137462 0.22700004
0.07754457 -0.095137462 0.22700001
0.079134181 -0.095137469 0.22700004
0.080750935 -0.095265664 0.22684215
0.082372136 -0.095276497 0.22664286
0.084044762 -0.095212601 0.22635482
0.085652091 -0.095209241 0.22633339
0.087169737 -0.095170014 0.22613791
0.088808738 -0.095245898 0.22600003
0.090391353 -0.095245875 0.22599998
0.091973938 -0.095245898 0.22600003
0.093556568 -0.095245883 0.22599998
0.095046073 -0.09518382 0.22600006
0.096921168 -0.095168635 0.22700001
0.098386101 -0.095137469 0.22700001
0.1000406 -0.095228069 0.22686963
0.1016431 -0.095312372 0.22646669
0.10314322 -0.095125757 0.22623077
0.10481064 -0.095245883 0.22599998
0.10639323 -0.095245883 0.22600003
0.10785536 -0.095247716 0.22626095
0.10955054 -0.095109589 0.22700004
0.11127959 -0.095137469 0.22700004
0.1128692 -0.095137477 0.22700001
0.11445878 -0.095137484 0.22700004
0.1160484 -0.095137469 0.22700001
0.11763801 -0.095137477 0.22700004
0.11922762 -0.095137462 0.22700001
0.12074617 -0.09525831 0.22686669
0.12244217 -0.0951728 0.22700001
0.12399646 -0.095137462 0.22700004
0.12558606 -0.095137462 0.22700001
0.12717567 -0.095137469 0.22700004
0.12871917 -0.095108345 0.22673334
0.13025935 -0.095239602 0.22669233
0.13197981 -0.0951728 0.22700001
0.13353409 -0.095137462 0.22700004
0.13485877 -0.094695911 0.22700001
0.13877843 -0.095178232 0.22700001
0.14004782 -0.09533076 0.22676195
0.14154822 -0.095183417 0.22646672
0.14312845 -0.095221326 0.22603846
0.14468837 -0.095167726 0.22600004
0.14638957 -0.095354371 0.22647826
0.14806941 -0.095342986 0.22662506
0.14959496 -0.095282249 0.22654551
0.1511647 -0.095176138 0.22695242
0.1528742 -0.095294923 0.22672729
0.15427242 -0.095205598 0.22621872
0.15598154 -0.09524589 0.22600003
0.15756415 -0.095245883 0.22599998
0.15914674 -0.095245883 0.22600003
0.16049488 -0.095011428 0.22600006
0.16251895 -0.095079474 0.22650002
0.16400914 -0.09516795 0.22621055
0.16565301 -0.095245875 0.22599998
0.16723561 -0.095245883 0.22600003
0.16883351 -0.095184729 0.226
0.17022498 -0.095538981 0.22600003
0.17219837 -0.09534359 0.22600004
0.17356601 -0.09524589 0.22600003
0.17514867 -0.095245883 0.22599998
0.17673123 -0.09524589 0.22600003
0.17831382 -0.095245898 0.22599998
0.18007231 -0.095245883 0.22599998
0.18159631 -0.095304504 0.22600004
0.18317357 -0.095725469 0.22600006
0.18482009 -0.095245883 0.22600003
0.18640275 -0.095245883 0.22599998
0.18798532 -0.095245905 0.22600003
0.18956795 -0.095245883 0.22599998
0.19115055 -0.095245883 0.22600003
0.19273314 -0.095245883 0.22599998
0.1944916 -0.095245898 0.22599998
0.19601557 -0.095304497 0.22600004
0.19737545 -0.095878944 0.22600003
0.20082203 -0.094542511 0.22600003
0.01713947 -0.094077729 0.22700001
0.018440057 -0.094029553 0.22700001
0.020038167 -0.093651764 0.22700001
0.021555044 -0.093547881 0.22700009
0.023144651 -0.093547866 0.22700004
0.024351576 -0.093753926 0.22700001
0.02632387 -0.094254345 0.22700001
0.027383611 -0.094254345 0.22700001
0.047577515 -0.093253486 0.22700001
0.048189811 -0.093123958 0.22700003
0.055466682 -0.092841364 0.22700001
0.057129011 -0.093464755 0.22700001
0.058469273 -0.093547858 0.22700004
0.060058884 -0.093547866 0.22700009
0.061648488 -0.093547858 0.22700004
0.063238099 -0.093547851 0.22700009
0.064827718 -0.093547858 0.22700004
0.066417314 -0.093547866 0.22700009
0.068006925 -0.093547881 0.22700004
0.069596536 -0.093547858 0.22700009
0.07118614 -0.093547858 0.22700004
0.072775744 -0.093547866 0.22700009
0.074365363 -0.093547866 0.22700004
0.075954959 -0.093547866 0.22700009
0.07754457 -0.093547866 0.22700004
0.079134181 -0.093547866 0.22700009
0.080723792 -0.093547866 0.22700004
0.082313396 -0.093547866 0.22700009
0.084079631 -0.093547866 0.22700009
0.085669234 -0.093547866 0.22700004
0.087293021 -0.093616761 0.22689295
0.088824093 -0.093559638 0.22655562
0.090331793 -0.093543671 0.22623998
0.091973945 -0.09366329 0.22600006
0.093556553 -0.093663283 0.22600003
0.095150568 -0.093555607 0.2261667
0.096857928 -0.093501784 0.22700007
0.098386094 -0.093547858 0.22700004
0.099975698 -0.093547866 0.22700009
0.10156532 -0.093547873 0.22700004
0.10318638 -0.093595497 0.22692601
0.10475775 -0.09367644 0.2268001
0.10632163 -0.093616746 0.22689295
0.10792376 -0.093547858 0.22700004
0.10951337 -0.093547866 0.22700009
0.11127958 -0.093547866 0.22700009
0.11286919 -0.093547866 0.22700004
0.1144588 -0.093547866 0.22700009
0.11607223 -0.093717121 0.22687501
0.11764236 -0.09373872 0.22650002
0.1335341 -0.093547866 0.22700009
0.1351237 -0.093547866 0.22700004
0.13628156 -0.093233861 0.22700003
0.1389211 -0.09360674 0.22700001
0.14006916 -0.093547851 0.22700004
0.14165877 -0.093547866 0.22700009
0.14321376 -0.093666747 0.22673085
0.14483231 -0.09359315 0.22688895
0.14642757 -0.093547858 0.22700004
0.14801718 -0.093547858 0.22700009
0.14960681 -0.093547858 0.22700004
0.15119639 -0.093547851 0.22700009
0.152786 -0.093547851 0.22700004
0.15421455 -0.093624823 0.22633332
0.15598153 -0.093663283 0.22600006
0.15756416 -0.093663305 0.22600003
0.15914676 -0.093663298 0.22600006
0.16072938 -0.09366329 0.22600003
0.16248778 -0.093663312 0.22600003
0.16407043 -0.093663305 0.22600006
0.1656879 -0.09362416 0.22604764
0.16722278 -0.093459234 0.22630437
0.16878653 -0.093624175 0.22604764
0.17007427 -0.093487442 0.22600004
0.17217101 -0.093581237 0.22600006
0.17356603 -0.093663283 0.22600006
0.17514864 -0.09366329 0.22600003
0.17673124 -0.093663298 0.22600006
0.17831384 -0.093663283 0.22600003
0.18003529 -0.093654044 0.22600003
0.18112737 -0.094190821 0.22600001
0.1848201 -0.09366329 0.22600006
0.18640275 -0.093663298 0.22600003
0.18798532 -0.093663298 0.22600006
0.18956794 -0.093663305 0.22600003
0.19115055 -0.093663283 0.22600006
0.19273312 -0.093663298 0.22600003
0.1944916 -0.093663298 0.22600003
0.19603901 -0.093628101 0.22600006
0.19752491 -0.093267635 0.22600004
0.19933408 -0.093568601 0.22600006
0.20082204 -0.093663312 0.22600003
0.20222878 -0.093583345 0.22600006
0.020318687 -0.092488125 0.22700001
0.021633543 -0.091997489 0.22700003
0.023144653 -0.091958255 0.22700001
0.02402777 -0.092311502 0.22700001
0.03815762 -0.092488125 0.22700001
0.038922984 -0.092311494 0.22700001
0.047518641 -0.092134871 0.22700001
0.048225135 -0.091958255 0.22700001
0.05536576 -0.092008725 0.22700001
0.056879662 -0.091958255 0.22700004
0.058469269 -0.091958262 0.22700001
0.060058884 -0.091958262 0.22700004
0.061648488 -0.091958247 0.22700001
0.063238099 -0.091958247 0.22700004
0.06482771 -0.091958255 0.22700001
0.066417322 -0.09195824 0.22700004
0.068042248 -0.091993563 0.22700001
0.069596544 -0.091958262 0.22700004
0.07118614 -0.091958255 0.22700001
0.072843395 -0.091893114 0.22678268
0.074283943 -0.091693833 0.22600004
0.076033458 -0.091997512 0.22700003
0.07754457 -0.091958255 0.22700001
0.079134181 -0.091958255 0.22700004
0.080723792 -0.091958255 0.22700001
0.082313389 -0.091958247 0.22700004
0.084079623 -0.091958247 0.22700004
0.085669234 -0.09195824 0.22700001
0.087258846 -0.09195824 0.22700004
0.088848442 -0.091958247 0.22700001
0.090512633 -0.092131391 0.22671439
0.092000805 -0.092107005 0.22649996
0.093592308 -0.092135981 0.22658625
0.095168427 -0.09208864 0.22684215
0.096796498 -0.09195824 0.22700004
0.098386094 -0.091958247 0.22700001
0.099975713 -0.091958262 0.22700004
0.10156532 -0.091958262 0.22700001
0.10315492 -0.091958247 0.22700004
0.10474452 -0.091958255 0.22700001
0.10631451 -0.092017137 0.22700003
0.10792375 -0.091958247 0.22700001
0.10951336 -0.091958247 0.22700004
0.13667613 -0.091930367 0.22700004
0.13833824 -0.09199357 0.22700003
0.14011733 -0.09216699 0.22700001
0.14169593 -0.091986127 0.22700004
0.15119639 -0.091958255 0.22700004
0.15278602 -0.091958247 0.22700001
0.15438525 -0.092134245 0.22658075
0.15597337 -0.092106976 0.22650003
0.15759276 -0.092083357 0.22646874
0.15914601 -0.091972895 0.22626923
0.16072936 -0.092080668 0.22599998
0.16248778 -0.09208069 0.22599998
0.16404264 -0.092117697 0.22600003
0.16567215 -0.092047334 0.22670004
0.16733651 -0.092104636 0.22676194
0.16883418 -0.092031389 0.22639997
0.17038397 -0.091995589 0.22613049
0.17198345 -0.092080683 0.22599998
0.17356603 -0.092080675 0.22600003
0.17514867 -0.092080683 0.22599998
0.17673124 -0.092080697 0.22600003
0.17831382 -0.09208069 0.22599998
0.18007231 -0.092080697 0.22599998
0.18160467 -0.091829486 0.22600006
0.18336312 -0.091728993 0.22600006
0.18482009 -0.092080697 0.22600003
0.18640274 -0.092080683 0.22599998
0.18798532 -0.092080675 0.22600003
0.18956792 -0.092080668 0.22599998
0.19115055 -0.09208069 0.22600003
0.19273314 -0.09208066 0.22599998
0.19449164 -0.09208066 0.22599998
0.19607416 -0.09208069 0.22600003
0.19765681 -0.092080668 0.22599998
0.1992394 -0.092080697 0.22600003
0.20068134 -0.092385486 0.22600006
0.20214084 -0.092696145 0.22600001
0.022084918 -0.090898514 0.22700001
0.023026908 -0.090957381 0.22700001
0.05570218 -0.090957381 0.22700001
0.056879662 -0.090368651 0.22700009
0.058469277 -0.090368643 0.22700004
0.060058881 -0.090368658 0.22700009
0.061648495 -0.090368636 0.22700004
0.063238099 -0.090368643 0.22700009
0.06482771 -0.090368666 0.22700004
0.066316389 -0.090267733 0.22700006
0.068065792 -0.090309761 0.22700003
0.069596529 -0.090368636 0.22700009
0.07118614 -0.090368643 0.22700004
0.072830148 -0.090404302 0.22692601
0.074355721 -0.090359747 0.22652008
0.076016396 -0.090322569 0.22700007
0.077544577 -0.090368643 0.22700004
0.079134181 -0.090368621 0.22700009
0.080723792 -0.090368651 0.22700004
0.082313396 -0.090368643 0.22700009
0.084079638 -0.090368658 0.22700009
0.085669234 -0.090368651 0.22700004
0.087258846 -0.090368643 0.22700009
0.088848442 -0.090368636 0.22700004
0.090376616 -0.090414733 0.22700007
0.091957018 -0.090792529 0.22700003
0.093762726 -0.090597197 0.22700001
0.095206879 -0.090368643 0.22700004
0.096796505 -0.090368636 0.22700009
0.098386101 -0.090368643 0.22700004
0.09997572 -0.090368643 0.22700009
0.10156532 -0.090368643 0.22700004
0.1030228 -0.090322271 0.22675005
0.15437561 -0.090368643 0.22700009
0.15596522 -0.090368629 0.22700004
0.15755484 -0.090368643 0.22700009
0.15925319 -0.09038499 0.2267693
0.16063257 -0.090352997 0.22613792
0.16245846 -0.090351529 0.226
0.16421226 -0.090358146 0.22678573
0.16567951 -0.090368643 0.22700009
0.16726911 -0.090368658 0.22700004
0.16885874 -0.090368636 0.22700009
0.17048806 -0.090471894 0.22680008
0.17202444 -0.090404056 0.22654837
0.17350493 -0.090328291 0.22613044
0.17514864 -0.090322226 0.22599998
0.17673124 -0.090322219 0.22600003
0.17831387 -0.090322234 0.22599998
0.18002436 -0.090418145 0.22600001
0.18161678 -0.090241164 0.22630765
0.18323754 -0.090322234 0.22599998
0.18482009 -0.090322241 0.22600003
0.18640274 -0.090322234 0.22599998
0.18798532 -0.090322234 0.22600003
0.18956797 -0.090322234 0.22599998
0.19115055 -0.090322226 0.22600003
0.19273315 -0.090322249 0.22599998
0.19449158 -0.090322219 0.22599998
0.19607416 -0.090322241 0.22600003
0.19765681 -0.090322226 0.22599998
0.19923939 -0.090322219 0.22600003
0.20023586 -0.089736082 0.22600001
0.0010667673 -0.088425793 0.22700001
0.0021265061 -0.088425793 0.22700001
0.025016859 -0.088390462 0.22700003
0.025970627 -0.088425785 0.22700001
0.057178572 -0.088819794 0.22700001
0.058469273 -0.088779032 0.22700001
0.060058881 -0.088779032 0.22700004
0.061648492 -0.088779025 0.22700001
0.063238099 -0.088779017 0.22700004
0.06482771 -0.088779017 0.22700001
0.066417322 -0.088779025 0.22700004
0.068006925 -0.088779025 0.22700001
0.069596529 -0.088779047 0.22700004
0.07118614 -0.088779032 0.22700001
0.072775744 -0.088779017 0.22700004
0.074365355 -0.08877904 0.22700001
0.075954959 -0.088779047 0.22700004
0.07754457 -0.08877904 0.22700001
0.079134181 -0.088779047 0.22700004
0.080723792 -0.088779025 0.22700001
0.082313389 -0.08877904 0.22700004
0.084079631 -0.088779032 0.22700004
0.085669234 -0.08877904 0.22700001
0.087258846 -0.08877904 0.22700004
0.088848442 -0.088779025 0.22700001
0.090400875 -0.088751145 0.22700004
0.091968797 -0.088249169 0.22700001
0.093864545 -0.08853177 0.22700003
0.095206887 -0.088779032 0.22700001
0.096755542 -0.088835999 0.22675002
0.098394938 -0.088952288 0.2269091
0.15753655 -0.088804975 0.22694738
0.15911783 -0.088780239 0.2263158
0.16072936 -0.088739619 0.22600003
0.16221835 -0.088783056 0.22607698
0.16399175 -0.088739783 0.22700003
0.16567951 -0.088779017 0.22700004
0.16726911 -0.088779047 0.22700001
0.16885872 -0.088779032 0.22700004
0.17043483 -0.088729307 0.22672224
0.17197168 -0.088768728 0.22609524
0.17356604 -0.088739626 0.22600006
0.17514865 -0.088739619 0.22600003
0.17673123 -0.088739626 0.22600006
0.17831384 -0.088739641 0.22600003
0.18005438 -0.088627212 0.22621056
0.18169016 -0.088657416 0.2263637
0.18319884 -0.088695034 0.22609091
0.1848201 -0.088739626 0.22600006
0.18640275 -0.088739626 0.22600003
0.18798532 -0.088739626 0.22600006
0.18956794 -0.088739641 0.22600003
0.19115055 -0.088739626 0.22600006
0.19273314 -0.088739634 0.22600003
0.19449161 -0.088739626 0.22600003
0.19607417 -0.088739619 0.22600006
0.19765683 -0.088739626 0.22600003
0.19923939 -0.088739619 0.22600006
0.20071858 -0.088667229 0.22600006
0.0010667673 -0.087895922 0.22700001
0.0017732597 -0.087895922 0.22700001
0.024897298 -0.087406807 0.22700001
0.025935302 -0.087613329 0.22700003
0.057232905 -0.087189436 0.22700001
0.058469273 -0.087189421 0.22700004
0.060058881 -0.087189414 0.22700009
0.061648499 -0.087189414 0.22700004
0.063238099 -0.087189429 0.22700009
0.06482771 -0.087189421 0.22700004
0.066417314 -0.087189414 0.22700009
0.068006925 -0.087189414 0.22700004
0.069596529 -0.087189429 0.22700009
0.07118614 -0.087189421 0.22700004
0.072775744 -0.087189429 0.22700009
0.074365355 -0.087189421 0.22700004
0.075954959 -0.087189414 0.22700009
0.07754457 -0.087189429 0.22700004
0.079134181 -0.087189414 0.22700009
0.080723785 -0.087189421 0.22700004
0.082313403 -0.087189406 0.22700009
0.084079631 -0.087189414 0.22700009
0.085669234 -0.087189429 0.22700004
0.087258846 -0.087189436 0.22700009
0.088848449 -0.087189414 0.22700004
0.09026143 -0.087346427 0.22700003
0.092174858 -0.087454356 0.22700001
0.093587838 -0.087218851 0.22700007
0.16074744 -0.087187 0.22647825
0.16232321 -0.087187648 0.22695005
0.16391326 -0.087189429 0.22700009
0.1656795 -0.087189414 0.22700009
0.16726217 -0.08718349 0.22680001
0.1688623 -0.087184928 0.22640005
0.17040081 -0.087157026 0.22600003
0.17198344 -0.087157018 0.22599998
0.17356601 -0.087157026 0.22600003
0.17514867 -0.087157018 0.22599998
0.17673124 -0.087157026 0.22600003
0.17812872 -0.087101482 0.22600003
0.18011548 -0.087330721 0.22700001
0.18157557 -0.087189406 0.22700009
0.18325549 -0.087301575 0.22661296
0.18466586 -0.087069638 0.2263103
0.18640274 -0.087157011 0.22599998
0.18798532 -0.087157026 0.22600003
0.18956795 -0.087157018 0.22599998
0.19115055 -0.087157033 0.22600003
0.19273314 -0.087157018 0.22599998
0.19449161 -0.087157018 0.22599998
0.19607416 -0.087157018 0.22600003
0.19761094 -0.087218188 0.226
0.1991275 -0.087508708 0.22600006
0.20038241 -0.087772481 0.22600001
0.20609736 -0.087508716 0.22600001
0.20668352 -0.087391488 0.22600003
0.05758616 -0.085776448 0.22700001
0.058469281 -0.085599825 0.22700001
0.060058881 -0.085599825 0.22700004
0.061648488 -0.08559981 0.22700001
0.063238099 -0.08559981 0.22700004
0.06482771 -0.085599825 0.22700001
0.066380128 -0.085590512 0.22700004
0.068042248 -0.085588053 0.22700001
0.069596536 -0.085599825 0.22700004
0.07118614 -0.085599817 0.22700001
0.072775744 -0.08559981 0.22700004
0.074365355 -0.085599802 0.22700001
0.075954966 -0.085599825 0.22700004
0.07754457 -0.08559981 0.22700001
0.079134181 -0.085599817 0.22700004
0.080723792 -0.085599817 0.22700001
0.082313396 -0.085599825 0.22700004
0.084038049 -0.085636511 0.2268889
0.085660659 -0.085651003 0.22666667
0.087254502 -0.085747913 0.22685716
0.088898905 -0.085675523 0.22700001
0.16391326 -0.08559981 0.22700004
0.16574755 -0.085615352 0.22669569
0.16720641 -0.085607082 0.22605887
0.16881822 -0.085574411 0.22600003
0.17040083 -0.085574411 0.22600006
0.17198345 -0.085574403 0.22600003
0.17356603 -0.085574418 0.22600006
0.17514864 -0.085574403 0.22600003
0.17673124 -0.085574433 0.22600006
0.17831385 -0.085574426 0.22600003
0.17973374 -0.085402541 0.22614288
0.18166977 -0.08575289 0.22700001
0.18324549 -0.085556641 0.22683334
0.18467383 -0.085661627 0.22627276
0.18640277 -0.085574403 0.22600003
0.18798532 -0.085574433 0.22600006
0.1896119 -0.085662328 0.22600006
0.19115055 -0.085574418 0.22600006
0.19273314 -0.085574418 0.22600003
0.19443299 -0.085633017 0.22600004
0.19600387 -0.085820593 0.22600004
0.19695342 -0.086101949 0.22600001
0.05193422 -0.08330372 0.22700001
0.058575254 -0.084398769 0.22700003
0.059994653 -0.084491901 0.22700001
0.061648492 -0.0847167 0.22700001
0.063134208 -0.083927095 0.22700001
0.064768836 -0.083735466 0.22700003
0.066593938 -0.0847167 0.22700001
0.068006925 -0.0847167 0.22700001
0.06974528 -0.084121764 0.22700004
0.07118614 -0.084010199 0.22700004
0.072775751 -0.084010214 0.22700009
0.073923804 -0.083745278 0.22700001
0.076425962 -0.08448121 0.22700001
0.07754457 -0.084010214 0.22700004
0.079134181 -0.084010221 0.22700009
0.080723792 -0.084010206 0.22700004
0.082313403 -0.084010214 0.22700009
0.083835699 -0.084103793 0.22626089
0.085538022 -0.084624849 0.22600003
0.087376855 -0.084594712 0.22600004
0.16565301 -0.083991811 0.22599998
0.16723563 -0.083991826 0.22600003
0.16881822 -0.083991811 0.22599998
0.17040083 -0.083991811 0.22600003
0.17198345 -0.083991811 0.22599998
0.17359418 -0.083959043 0.22604764
0.17522833 -0.083935559 0.22627586
0.17669968 -0.083891846 0.22616667
0.17831385 -0.083991811 0.22599998
0.18007229 -0.083991803 0.22599998
0.18162386 -0.083867669 0.22600006
0.18326682 -0.0839625 0.226
0.18482009 -0.083991811 0.22600003
0.18640274 -0.083991803 0.22599998
0.18798532 -0.083991818 0.22600003
0.18956792 -0.083991803 0.22599998
0.19115055 -0.083991811 0.22600003
0.19245178 -0.084155932 0.22600006
0.19378822 -0.08469519 0.22600001
0.050521232 -0.082636468 0.22700003
0.051934224 -0.08242061 0.22700004
0.053307954 -0.082557976 0.22700003
0.062178362 -0.082950473 0.22700001
0.063288562 -0.082622461 0.22700001
0.064863034 -0.082455926 0.22700001
0.067123808 -0.081890732 0.22700001
0.069949776 -0.082597218 0.22700001
0.071274452 -0.082567789 0.22700001
0.072775744 -0.082420602 0.22700004
0.074330024 -0.082385279 0.22700001
0.075954959 -0.082243986 0.22700001
0.07754457 -0.082420602 0.22700001
0.079134181 -0.082420602 0.22700004
0.080723792 -0.082420595 0.22700001
0.082187235 -0.082597233 0.22700001
0.083449364 -0.082852252 0.22625001
0.16881822 -0.082409218 0.22600003
0.17040083 -0.082409203 0.22600006
0.17198345 -0.082409218 0.22600003
0.17379101 -0.082437351 0.22677779
0.17521715 -0.082420595 0.22700004
0.1768444 -0.082506254 0.22680004
0.17835209 -0.082390711 0.22646669
0.18003234 -0.082362063 0.22609092
0.1816549 -0.082409211 0.22600006
0.18323752 -0.082409211 0.22600003
0.1848201 -0.082409218 0.22600006
0.18640274 -0.082409188 0.22600003
0.18798532 -0.082409203 0.22600006
0.18956794 -0.082409196 0.22600003
0.19115055 -0.082409218 0.22600006
0.19202976 -0.082409211 0.22600001
0.020495309 -0.081537493 0.22700001
0.05204019 -0.081325546 0.22700003
0.052993961 -0.081537493 0.22700001
0.066770561 -0.081419744 0.22700001
0.071716011 -0.080830999 0.22700003
0.072775744 -0.080830991 0.22700009
0.074365348 -0.080830991 0.22700004
0.075954966 -0.080831006 0.22700009
0.07754457 -0.080830991 0.22700004
0.17365541 -0.080793805 0.22700004
0.17521714 -0.080830991 0.22700009
0.17680676 -0.080850616 0.22700003
0.17839636 -0.080831006 0.22700009
0.18011191 -0.080911718 0.22655889
0.18152791 -0.08071892 0.22623077
0.18320821 -0.080841243 0.226
0.18482009 -0.080826588 0.22600003
0.18640272 -0.080826588 0.22599998
0.18798532 -0.080826595 0.22600003
0.18956795 -0.080826595 0.22599998
0.19115055 -0.080826595 0.22600003
0.19255731 -0.08052516 0.22600006
0.19437437 -0.08018183 0.22600003
0.19617972 -0.080193557 0.22600003
0.1976568 -0.080299057 0.22600004
0.19923942 -0.080474913 0.22600006
0.200611 -0.080369398 0.22600004
0.20715244 -0.080123216 0.22600003
0.045768473 -0.079032652 0.22700001
0.046753276 -0.079123639 0.22700001
0.052640714 -0.078711525 0.22700001
0.053347204 -0.078913376 0.22700001
0.054406945 -0.078711525 0.22700001
0.071480513 -0.079182513 0.22700003
0.072775744 -0.079241402 0.22700004
0.074365355 -0.079241395 0.22700001
0.075954959 -0.07924141 0.22700004
0.17388266 -0.079378761 0.22700003
0.17521715 -0.079241395 0.22700004
0.17680676 -0.07924138 0.22700001
0.17847486 -0.079202138 0.22700003
0.17998596 -0.079241395 0.22700001
0.18161884 -0.079254061 0.22660007
0.18323754 -0.079243995 0.22600003
0.18482009 -0.079244003 0.22600006
0.18640277 -0.079244003 0.22600003
0.18798532 -0.079243995 0.22600006
0.18956794 -0.079244003 0.22600003
0.19110031 -0.079319358 0.22600006
0.19282641 -0.079170816 0.22637039
0.1944916 -0.079244003 0.22600003
0.19607417 -0.079243995 0.22600006
0.19765683 -0.079244003 0.22600003
0.1992394 -0.079243995 0.22600006
0.20082203 -0.079243995 0.22600003
0.20235439 -0.07916864 0.22600006
0.20398726 -0.079068162 0.22600006
0.20560502 -0.079208836 0.22600006
0.20715241 -0.079244003 0.22600003
0.20852722 -0.079196043 0.22600006
0.045722976 -0.077975594 0.22700001
0.046831779 -0.077848025 0.22700003
0.050874483 -0.07694529 0.22700001
0.052240368 -0.077510484 0.22700001
0.053523831 -0.077651791 0.22700004
0.054681689 -0.077534035 0.22700003
0.056938544 -0.077416271 0.22700003
0.058292661 -0.077523328 0.22700001
0.060058884 -0.077322088 0.22700001
0.061577845 -0.077227876 0.22700003
0.063238099 -0.077121921 0.22700003
0.064898357 -0.07722789 0.22700003
0.066461474 -0.077342689 0.22700001
0.067956455 -0.07739947 0.22700001
0.069667183 -0.077492811 0.22700004
0.07118614 -0.077651776 0.22700004
0.072540253 -0.077975594 0.22700001
0.17522803 -0.077611163 0.22646669
0.17680155 -0.077879779 0.22692858
0.17839637 -0.077828407 0.22700004
0.17998596 -0.0778284 0.22700001
0.18162687 -0.077763669 0.22669238
0.18303491 -0.077880368 0.22636847
0.18486492 -0.077783883 0.22681487
0.18635696 -0.077618539 0.2263611
0.18798532 -0.07766138 0.22600003
0.18956792 -0.077661403 0.22599998
0.19099982 -0.077510662 0.22600006
0.19287838 -0.077726558 0.22634615
0.19449161 -0.077661403 0.22599998
0.19607416 -0.077661403 0.22600003
0.19765681 -0.077661388 0.22599998
0.1992394 -0.077661388 0.22600003
0.20082201 -0.077661395 0.22599998
0.20240465 -0.077661403 0.22600003
0.2039872 -0.077661403 0.22599998
0.20556983 -0.077661395 0.22600003
0.20715241 -0.077661388 0.22599998
0.20853409 -0.077711634 0.22600006
0.036568012 -0.075532302 0.22700001
0.046164531 -0.075885549 0.22700001
0.047130071 -0.076026842 0.22700001
0.048775785 -0.07596866 0.22700001
0.050379936 -0.076026849 0.22700001
0.051934224 -0.07606218 0.22700004
0.053523831 -0.076062165 0.22700001
0.055059094 -0.075967066 0.22700001
0.056879669 -0.076062158 0.22700004
0.058469277 -0.076062173 0.22700001
0.060058884 -0.07606218 0.22700004
0.061648488 -0.076062173 0.22700001
0.063238099 -0.076062188 0.22700004
0.06482771 -0.07606218 0.22700001
0.066417314 -0.07606218 0.22700004
0.068006925 -0.076062173 0.22700001
0.069596529 -0.07606218 0.22700004
0.07118614 -0.076062165 0.22700001
0.17831388 -0.07607878 0.22600003
0.18007231 -0.07607878 0.22600003
0.18165492 -0.076078787 0.22600006
0.18313409 -0.076006383 0.22600006
0.18489866 -0.075962991 0.22627276
0.18641433 -0.076077357 0.22610001
0.18798532 -0.076078787 0.22600006
0.18956794 -0.07607878 0.22600003
0.19115053 -0.076078787 0.22600006
0.19273314 -0.07607878 0.22600003
0.19449161 -0.076078787 0.22600003
0.19597951 -0.076173469 0.22600006
0.19774823 -0.076085404 0.22645837
0.19911055 -0.075993963 0.22627272
0.20056625 -0.076286606 0.22600006
0.20240462 -0.076606326 0.22600001
0.2041471 -0.076350547 0.22600006
0.20560502 -0.076113954 0.22600006
0.20715241 -0.07607878 0.22600003
0.20855919 -0.075966887 0.22600006
0.034742907 -0.074001573 0.22700001
0.036067579 -0.074443124 0.22700007
0.037599858 -0.074435376 0.22700004
0.038510863 -0.074119322 0.22700001
0.046070341 -0.074401923 0.22700003
0.047165394 -0.074472569 0.22700004
0.048755001 -0.074472561 0.22700009
0.050344609 -0.074472561 0.22700004
0.051681899 -0.074724875 0.22700001
0.053464953 -0.075179055 0.22700001
0.055193719 -0.074552864 0.22700006
0.056879662 -0.074472569 0.22700009
0.058469277 -0.074472561 0.22700004
0.060058884 -0.074472554 0.22700009
0.061648495 -0.074472576 0.22700004
0.063238099 -0.074472576 0.22700009
0.064827718 -0.074472569 0.22700004
0.066417314 -0.074472561 0.22700009
0.068006925 -0.074472561 0.22700004
0.069596522 -0.074472561 0.22700009
0.18320823 -0.074466862 0.226
0.18482009 -0.07449618 0.22600003
0.18640275 -0.074496165 0.22599998
0.18798532 -0.07449618 0.22600003
0.18956792 -0.074496165 0.22599998
0.19115055 -0.074496172 0.22600003
0.19273314 -0.074496172 0.22599998
0.1944916 -0.074496172 0.22599998
0.19592346 -0.074345455 0.22600006
0.19777879 -0.0744702 0.22642855
0.19913493 -0.074605212 0.22613639
0.20011863 -0.075023711 0.22600001
0.20592153 -0.075023711 0.22600001
0.20723616 -0.074613392 0.22600001
0.20873506 -0.074496165 0.22600003
0.21014179 -0.074254386 0.22600006
0.012547269 -0.072353087 0.22700001
0.013607007 -0.072353087 0.22700001
0.015196616 -0.072353087 0.22700003
0.016811457 -0.072504476 0.22700001
0.018123511 -0.072504476 0.22700001
0.028502224 -0.072470836 0.22700001
0.029547244 -0.072485551 0.22700001
0.034801781 -0.073236197 0.22700001
0.036070254 -0.073188022 0.22700001
0.037274502 -0.073412821 0.22700001
0.04610566 -0.072882958 0.22700001
0.047165398 -0.072882958 0.22700001
0.048755001 -0.072882943 0.22700004
0.050344612 -0.07288295 0.22700001
0.051227726 -0.072882958 0.22700001
0.055407807 -0.073236205 0.22700001
0.056879669 -0.072882965 0.22700004
0.058469277 -0.07288295 0.22700001
0.060058884 -0.072882958 0.22700004
0.061648492 -0.07288295 0.22700001
0.063238099 -0.072882943 0.22700004
0.06482771 -0.072882958 0.22700001
0.066378064 -0.072922207 0.22700003
0.18482009 -0.072737716 0.22600003
0.18630505 -0.072952643 0.22600004
0.18786807 -0.073323883 0.22600003
0.18939209 -0.073441111 0.22600001
0.19079885 -0.073441111 0.22600001
0.19304088 -0.073089421 0.22600004
0.19452091 -0.072767049 0.226
0.19603509 -0.07281588 0.22600004
0.19754691 -0.073023476 0.22600006
0.19882911 -0.073323883 0.22600001
0.20785581 -0.073441111 0.22600001
0.20884053 -0.07337077 0.22600003
0.21039881 -0.073143527 0.22600006
0.21154857 -0.073089421 0.22600003
0.21418624 -0.072034352 0.22600001
0.012046836 -0.071263902 0.22700007
0.013607008 -0.071293339 0.22700004
0.015196619 -0.071293339 0.22700009
0.016786227 -0.071293339 0.22700004
0.017997352 -0.071343817 0.22700001
0.028266726 -0.071293347 0.22700001
0.029650273 -0.071322769 0.22700007
0.046057489 -0.071229123 0.22700001
0.047165394 -0.071293361 0.22700004
0.048755005 -0.071293332 0.22700009
0.050344616 -0.071293339 0.22700004
0.051866934 -0.071175598 0.22700006
0.053523831 -0.071116723 0.22700001
0.055084001 -0.071263902 0.22700007
0.056879662 -0.071293347 0.22700009
0.058469266 -0.071293347 0.22700004
0.060058881 -0.071293332 0.22700009
0.061648495 -0.071293339 0.22700004
0.063238099 -0.071293347 0.22700009
0.06482771 -0.071293354 0.22700004
0.18991964 -0.070627593 0.22600001
0.19074023 -0.07074482 0.22600001
0.21418624 -0.071682662 0.22600001
0.21453793 -0.071330972 0.22600001
0.012229348 -0.069986328 0.22700003
0.013634897 -0.069564305 0.22700004
0.015196619 -0.069527112 0.22700009
0.016713498 -0.06963101 0.22700001
0.017787088 -0.070115864 0.22700001
0.028266726 -0.070233613 0.22700001
0.028973218 -0.070233613 0.22700001
0.036108792 -0.069173872 0.22700003
0.037215628 -0.068938375 0.22700001
0.045999683 -0.070092313 0.22700003
0.047165394 -0.069880359 0.22700001
0.048704542 -0.069905601 0.22700001
0.050344609 -0.07005699 0.22700001
0.052022532 -0.069968678 0.22700001
0.053535603 -0.069668412 0.22700001
0.055180725 -0.069577575 0.22700006
0.056879662 -0.069527119 0.22700009
0.058469273 -0.069527104 0.22700004
0.060058881 -0.069527119 0.22700009
0.061648488 -0.069527112 0.22700004
0.18820512 -0.06930875 0.22600004
0.18959726 -0.069543205 0.226
0.19072351 -0.069723241 0.22600004
0.21488962 -0.070275895 0.22600001
0.21723421 -0.069103591 0.22600001
0.21787898 -0.068869136 0.22600001
-0.16711767 -0.067800134 0.22700003
0.015726484 -0.068467379 0.22700001
0.016256355 -0.068467379 0.22700001
0.037097879 -0.068467379 0.22700001
0.055217337 -0.068010233 0.22700001
0.056879662 -0.067937508 0.22700004
0.058469277 -0.067937516 0.22700001
0.060058881 -0.067937516 0.22700004
0.18808 -0.06794934 0.22600006
0.18956794 -0.067989901 0.22600003
0.19062302 -0.068341613 0.22600001
0.21735145 -0.068517454 0.22600001
0.21770313 -0.068517454 0.22600001
-0.16750231 -0.066630498 0.22700003
0.050344612 -0.065641411 0.22700001
0.055537332 -0.066913091 0.22700003
0.056911778 -0.066444233 0.22700006
0.058497161 -0.066385083 0.22700004
0.060058884 -0.066347905 0.22700009
0.1882491 -0.067022771 0.22600001
0.1895999 -0.066886894 0.22600006
0.19625004 -0.065703936 0.22600001
0.19742234 -0.065821163 0.22600003
0.023674525 -0.064228423 0.22700001
0.024683798 -0.064329349 0.22700001
0.025970627 -0.064228423 0.22700001
0.04610566 -0.064228423 0.22700001
0.046812151 -0.064228423 0.22700001
0.049320199 -0.064864263 0.22700003
0.05036984 -0.064833999 0.22700001
0.05161041 -0.064669974 0.22700001
0.057303559 -0.064758293 0.22700003
0.058174908 -0.064699419 0.22700003
0.19159016 -0.064648859 0.22600001
0.19273314 -0.064648859 0.22600006
0.19455366 -0.064731613 0.22600006
0.19607419 -0.064824715 0.22600006
0.1976198 -0.064796947 0.22600003
0.19882911 -0.064414404 0.22600001
0.016786225 -0.062462192 0.22700001
0.018440057 -0.06268698 0.22700001
0.019979028 -0.06286978 0.22700001
0.021555049 -0.062638812 0.22700003
0.023227075 -0.062980287 0.22700001
0.024688186 -0.063230112 0.22700007
0.026335645 -0.063380636 0.22700001
0.027206987 -0.063521937 0.22700001
0.04610566 -0.063698553 0.22700001
0.046635527 -0.063521929 0.22700001
0.052351691 -0.063072339 0.22700001
0.053523831 -0.062992059 0.22700001
0.05505456 -0.062933192 0.22700003
0.056959949 -0.06308841 0.22700006
0.19167808 -0.063417941 0.22600001
0.19273314 -0.063242108 0.22599998
0.1944916 -0.0632421 0.22599998
0.19607417 -0.063242115 0.22600003
0.19765681 -0.063242108 0.22599998
0.1992394 -0.0632421 0.22600003
0.20068136 -0.062937312 0.22600006
0.20205292 -0.062538721 0.22600001
0.21406899 -0.063417941 0.22600003
0.21524131 -0.063242115 0.22599998
0.21682391 -0.063242108 0.22600003
0.21837722 -0.063212804 0.226
0.21961232 -0.063141614 0.22600004
0.22320227 -0.06285844 0.22600006
0.016836688 -0.061629541 0.22700001
0.018375834 -0.061579078 0.22700004
0.01996544 -0.061579075 0.22700001
0.021555044 -0.061579078 0.22700004
0.022923877 -0.061799858 0.22700001
0.02402777 -0.062108945 0.22700001
0.052489318 -0.061503384 0.22700001
0.053523831 -0.061579075 0.22700001
0.055113442 -0.061579067 0.22700004
0.056622766 -0.06178781 0.22700001
0.19497517 -0.061747413 0.22600004
0.19607419 -0.061659493 0.22600006
0.19759822 -0.061679039 0.22600004
0.19926845 -0.061685298 0.2261667
0.20082203 -0.061659493 0.22600003
0.20240462 -0.061659485 0.22600006
0.20394325 -0.06152761 0.22600006
0.20556985 -0.061483655 0.22600006
0.20668352 -0.061425034 0.22600003
0.215593 -0.062187027 0.22600001
0.21692944 -0.06211669 0.22600003
0.21823068 -0.062011182 0.22600004
0.22318955 -0.061694663 0.22600006
0.017051158 -0.060607649 0.22700001
0.01852457 -0.060138207 0.22700004
0.01996544 -0.059989471 0.22700004
0.021555044 -0.059989464 0.22700009
0.022715716 -0.059838083 0.22700001
0.036744636 -0.059282973 0.22700001
0.037627749 -0.059282973 0.22700001
0.038510863 -0.059282973 0.22700001
0.046988774 -0.059282973 0.22700001
0.052120142 -0.059896514 0.22700004
0.053523831 -0.059989475 0.22700004
0.055113439 -0.059989467 0.22700009
0.19512463 -0.060358237 0.22600003
0.19611324 -0.060155049 0.22600004
0.19772717 -0.060041718 0.22600003
0.1992394 -0.060076892 0.22600003
0.20082203 -0.060076896 0.22599998
0.20240462 -0.0600769 0.22600003
0.20398721 -0.060076881 0.22599998
0.20556983 -0.060076892 0.22600003
0.20659979 -0.060328096 0.22600004
0.21887545 -0.059666585 0.22600003
0.21998915 -0.05990104 0.22600006
0.22166425 -0.059891794 0.22600003
0.22315435 -0.060076892 0.22600003
0.018964576 -0.058517616 0.22700001
0.01996544 -0.05839986 0.22700001
0.021555044 -0.058399867 0.22700004
0.023109326 -0.058364537 0.22700001
0.024481943 -0.058021385 0.22700001
0.029326463 -0.057869989 0.22700001
0.036228348 -0.058223244 0.22700001
0.037627745 -0.058399856 0.22700001
0.039180174 -0.058371965 0.22700004
0.04074809 -0.058105487 0.22700003
0.042219952 -0.057869989 0.22700001
0.044280548 -0.057987738 0.22700001
0.045497291 -0.058380239 0.22700003
0.047165398 -0.058399864 0.22700001
0.048755001 -0.05822324 0.22700001
0.050356388 -0.058364537 0.22700001
0.051934224 -0.058399864 0.22700004
0.053488504 -0.058435194 0.22700001
0.054406945 -0.058929734 0.22700001
0.19765681 -0.058318444 0.22599998
0.1992394 -0.058318436 0.22600003
0.200822 -0.058318432 0.22599998
0.202346 -0.058377046 0.22600004
0.20392329 -0.058798015 0.22600006
0.20532365 -0.058881141 0.22600003
0.21893406 -0.058845971 0.22600001
0.22002432 -0.058529451 0.22600006
0.22147793 -0.058646683 0.22600006
0.22307897 -0.058871098 0.22600004
0.018941026 -0.057234149 0.22700003
0.019996608 -0.056934923 0.22700001
0.021555042 -0.056810241 0.22700009
0.023144653 -0.056810249 0.22700004
0.024498763 -0.056869131 0.22700003
0.028619971 -0.057163503 0.22700001
0.029365715 -0.05712425 0.22700003
0.034821406 -0.056731753 0.22700003
0.036038145 -0.056810249 0.22700009
0.037627749 -0.056810241 0.22700004
0.03921736 -0.056810241 0.22700009
0.040806968 -0.056810249 0.22700004
0.042396568 -0.056810241 0.22700009
0.043986179 -0.056810241 0.22700004
0.04557579 -0.05681026 0.22700009
0.047165394 -0.056810249 0.22700004
0.048708927 -0.056871694 0.22700007
0.050332833 -0.057022199 0.22700001
0.051934224 -0.056810241 0.22700009
0.053523831 -0.056810249 0.22700004
0.19923939 -0.056735832 0.22600006
0.20082203 -0.056735843 0.22600003
0.20211154 -0.056716297 0.22600004
0.021837646 -0.055679865 0.22700003
0.023215305 -0.055467915 0.22700003
0.024169069 -0.055467922 0.22700003
0.034801781 -0.055397272 0.22700001
0.036038142 -0.055220641 0.22700004
0.037627745 -0.055220649 0.22700001
0.03921736 -0.055220645 0.22700004
0.040806964 -0.055220645 0.22700001
0.042396568 -0.055220645 0.22700004
0.043986179 -0.055220649 0.22700001
0.04557579 -0.055220641 0.22700004
0.047151808 -0.05531574 0.22700001
0.048189811 -0.055397265 0.22700003
0.052287463 -0.055220649 0.22700001
0.053276557 -0.055220645 0.22700003
0.19946936 -0.05523438 0.22600006
0.20079269 -0.055182535 0.226
0.20194742 -0.05536424 0.22600003
0.2057066 -0.054723389 0.22600004
0.2070059 -0.054742929 0.22600006
0.02685374 -0.053277791 0.22700001
0.027206987 -0.052924547 0.22700001
0.036239993 -0.053933825 0.22700001
0.037627749 -0.053631045 0.22700004
0.03921736 -0.053631034 0.22700009
0.040806971 -0.053631037 0.22700004
0.042396568 -0.053631034 0.22700009
0.043976884 -0.053593863 0.22700004
0.04557579 -0.05363103 0.22700009
0.047134224 -0.053506371 0.22700001
0.048622534 -0.053366106 0.22700001
0.050344609 -0.053101167 0.22700001
0.05203056 -0.053582862 0.22700006
0.19976695 -0.054098159 0.22600001
0.20047033 -0.054010235 0.22600001
0.20578966 -0.053790428 0.22600004
0.20692863 -0.053778443 0.22600006
0.02685374 -0.05204143 0.22700001
0.027206987 -0.052041434 0.22700001
0.037980996 -0.0525713 0.22700001
0.039358653 -0.052359354 0.22700003
0.040674496 -0.052350521 0.22700001
0.042396575 -0.052571304 0.22700003
0.044162806 -0.052153826 0.22700001
0.04557579 -0.052041434 0.22700004
0.047165398 -0.052041434 0.22700001
0.048755001 -0.052041441 0.22700004
0.050344612 -0.052041437 0.22700001
0.051580969 -0.052369446 0.22700001
0.026544649 -0.050098572 0.22700001
0.027819281 -0.050145671 0.22700001
0.029427392 -0.049896717 0.22700001
0.044359054 -0.050491069 0.22700003
0.045575786 -0.05045183 0.22700009
0.047165398 -0.050451823 0.22700004
0.048713442 -0.050721958 0.22700001
0.050385371 -0.050750718 0.22700001
0.025323005 -0.048803341 0.22700001
0.02632387 -0.048862211 0.22700001
0.027913477 -0.048862211 0.22700004
0.02967971 -0.048862211 0.22700004
0.030739447 -0.049392086 0.22700001
0.044233456 -0.048791561 0.22700003
0.04557579 -0.048862223 0.22700004
0.047097467 -0.048848629 0.22700001
0.048166264 -0.048450094 0.22700001
0.026529931 -0.047360923 0.22700001
0.027777614 -0.047653034 0.22700001
0.029385341 -0.047861353 0.22700001
0.033300482 -0.046654426 0.22700001
0.034519184 -0.046848714 0.22700003
0.036097012 -0.047037113 0.22700003
0.037678208 -0.047020294 0.22700001
0.039135836 -0.04686502 0.22700001
0.040453717 -0.046566114 0.22700001
0.04259843 -0.046717506 0.22700001
0.044014066 -0.047254018 0.22700004
0.04557579 -0.047272608 0.22700009
0.046786923 -0.047171678 0.22700001
0.048048515 -0.047449231 0.22700001
0.026588805 -0.045947932 0.22700001
0.032983601 -0.045693383 0.22700001
0.034448531 -0.045682997 0.22700001
0.035959646 -0.04572225 0.22700003
0.037627745 -0.04585962 0.22700001
0.039254542 -0.045710884 0.22700004
0.040806968 -0.045683 0.22700001
0.042396568 -0.045682997 0.22700004
0.043986179 -0.045682997 0.22700001
0.04557579 -0.045682993 0.22700004
0.046753276 -0.045977373 0.22700001
0.026677117 -0.044005085 0.22700001
0.027781013 -0.043563526 0.22700001
0.029503087 -0.043386899 0.22700001
0.033153296 -0.044682134 0.22700001
0.034448534 -0.044623263 0.22700001
0.036244199 -0.044299453 0.22700001
0.037678208 -0.043841071 0.22700001
0.039217357 -0.044093385 0.22700009
0.040806964 -0.044093385 0.22700004
0.042396575 -0.044093385 0.22700009
0.043943476 -0.044206731 0.22694118
0.045385584 -0.044446643 0.22700001
0.025087509 -0.041620668 0.22700001
0.02685374 -0.042444903 0.22700001
0.027913475 -0.042327162 0.22700009
0.02967971 -0.042327154 0.22700009
0.031014195 -0.042013165 0.22700003
0.036254011 -0.04222903 0.22700003
0.037627749 -0.042327158 0.22700004
0.039217364 -0.042327162 0.22700009
0.040797669 -0.042327162 0.22700004
0.042442642 -0.042327154 0.22700007
0.044013567 -0.042404737 0.22637041
0.045546353 -0.041885603 0.22700001
0.20908673 -0.041789006 0.22600001
0.21031766 -0.041789006 0.22600003
0.2120761 -0.041789006 0.22600001
0.21365871 -0.041789006 0.22600001
0.21524128 -0.041964851 0.22600004
0.21689424 -0.042070355 0.22600004
0.21843161 -0.042115577 0.22600006
0.21957882 -0.041906238 0.22600001
0.02632387 -0.040737547 0.22700001
0.027913481 -0.040737547 0.22700004
0.029679712 -0.040737547 0.22700004
0.031269319 -0.040737554 0.22700001
0.032732762 -0.040560931 0.22700001
0.034507409 -0.040443182 0.22700003
0.036038142 -0.040737547 0.22700004
0.037627745 -0.040737551 0.22700001
0.03921736 -0.040737547 0.22700004
0.040806968 -0.040737554 0.22700001
0.042396575 -0.040737547 0.22700004
0.043986183 -0.040737551 0.22700001
0.04557579 -0.040737551 0.22700004
0.20896877 -0.040746119 0.22664708
0.21036872 -0.040747136 0.2262857
0.21207611 -0.040733945 0.22599998
0.21365869 -0.04073393 0.22600003
0.2152413 -0.04073393 0.22599998
0.21682394 -0.040733941 0.22600003
0.21840651 -0.040748585 0.226
0.21961789 -0.04081209 0.22600004
0.026298638 -0.039703045 0.22700001
0.027942913 -0.039162654 0.22700007
0.029679708 -0.039147943 0.22700009
0.031269319 -0.039147943 0.22700004
0.032844204 -0.039177377 0.22700007
0.034476425 -0.039185129 0.22700004
0.036038145 -0.039147936 0.22700009
0.037627749 -0.039147951 0.22700004
0.03921736 -0.039147951 0.22700009
0.040453717 -0.039368723 0.22700001
0.20882697 -0.039278693 0.22689475
0.21030053 -0.039228819 0.22633336
0.21207611 -0.039151341 0.22600003
0.21365871 -0.039151337 0.22600006
0.21524134 -0.039151333 0.22600003
0.21678875 -0.0391865 0.22600006
0.21826585 -0.039467849 0.22600004
0.026712101 -0.037374489 0.22610004
0.02801664 -0.037560631 0.22682355
0.029679712 -0.03755834 0.22700004
0.031269319 -0.037558336 0.22700001
0.032270182 -0.037558336 0.22700001
0.034978401 -0.038088206 0.22700001
0.036162816 -0.037589505 0.22700001
0.037627745 -0.037558336 0.22700001
0.03921736 -0.037558343 0.22700004
0.040478952 -0.037381712 0.22700001
0.20873506 -0.037568729 0.22600003
0.21031766 -0.037568726 0.22599998
0.21204676 -0.037583377 0.226
0.21365871 -0.038272105 0.22600001
0.21506548 -0.038272105 0.22600001
0.028113894 -0.036027215 0.22633336
0.02967971 -0.035968728 0.22700009
0.031269319 -0.035968725 0.22700004
0.032451335 -0.035887204 0.22700001
0.036067579 -0.035939295 0.22700007
0.037627749 -0.035968728 0.22700004
0.039217364 -0.035968725 0.22700009
0.04080696 -0.035968728 0.22700004
0.0423484 -0.035872389 0.22700006
0.20885557 -0.035915151 0.22625004
0.21033415 -0.035910457 0.22634782
0.21207044 -0.035828352 0.22635709
0.21353617 -0.03569651 0.22609095
0.2148017 -0.035546508 0.22600001
0.028153107 -0.034396544 0.22628574
0.02967971 -0.034379121 0.22700004
0.031269319 -0.034379117 0.22700001
0.032755036 -0.034306388 0.22700001
0.034536842 -0.034231931 0.22700001
0.036038142 -0.034379117 0.22700004
0.037627745 -0.034379117 0.22700001
0.03921736 -0.034379117 0.22700004
0.040806968 -0.034379113 0.22700001
0.042337697 -0.034437995 0.22700003
0.21036515 -0.034379117 0.22700001
0.21213582 -0.03435063 0.22659378
0.2135722 -0.034468327 0.22609524
0.2147724 -0.034872435 0.22600003
0.026999209 -0.032645065 0.22600001
0.028199514 -0.03271798 0.22681251
0.029679708 -0.032789513 0.22700009
0.031269319 -0.032789513 0.22700004
0.032858923 -0.032789513 0.22700009
0.034448534 -0.032789513 0.22700004
0.036038145 -0.032789513 0.22700009
0.037627749 -0.03278951 0.22700004
0.03921736 -0.032789506 0.22700009
0.040806968 -0.032789513 0.22700004
0.21063472 -0.033070277 0.22650003
0.211917 -0.03298372 0.22615001
0.21324842 -0.033231214 0.22600001
0.22187945 -0.032513183 0.22600004
0.2231679 -0.032699171 0.22600006
0.027087132 -0.031941682 0.22600001
0.027972355 -0.031258777 0.22700001
0.02967971 -0.031199906 0.22700004
0.031269319 -0.03119991 0.22700001
0.032858923 -0.031199912 0.22700004
0.034448534 -0.03119991 0.22700001
0.036038142 -0.031199902 0.22700004
0.037627745 -0.03119991 0.22700001
0.03921736 -0.031199908 0.22700004
0.21102102 -0.031941682 0.22600001
0.21137272 -0.031941682 0.22600001
0.22173831 -0.031330854 0.22600003
0.22315435 -0.031238306 0.22600003
0.02810812 -0.029655518 0.22666669
0.029709145 -0.029639734 0.22700007
0.031063259 -0.029816357 0.22700001
0.032858923 -0.030316789 0.22700003
0.034574691 -0.029812153 0.22700001
0.036038142 -0.029610299 0.22700009
0.037627749 -0.029610297 0.22700004
0.039187923 -0.02963973 0.22700007
0.22322968 -0.030032512 0.22600004
0.029597223 -0.028015645 0.22661911
0.030810097 -0.027914714 0.22700003
0.034978401 -0.028550556 0.22700001
0.036075324 -0.028048579 0.22700004
0.037627745 -0.028020693 0.22700001
0.038746361 -0.028315062 0.22700001
0.02950635 -0.026330853 0.22675005
0.031269323 -0.026077835 0.22700001
0.032732766 -0.026077835 0.22700001
0.034095287 -0.025724586 0.22700001
0.036391385 -0.026355386 0.22700001
0.037627749 -0.02643108 0.22700004
0.039137077 -0.026350794 0.22700006
0.040277097 -0.026077833 0.22700001
0.21195887 -0.025611261 0.22600001
0.21348286 -0.025611263 0.22600001
0.21576884 -0.025611263 0.22600001
0.21682391 -0.025787108 0.22600004
0.21840653 -0.02578711 0.22600004
0.21998912 -0.025611263 0.22600001
0.22086835 -0.025611263 0.22600001
0.22333018 -0.025611261 0.22600001
0.22464903 -0.025611263 0.22600001
0.029679712 -0.024841473 0.22700004
0.031269319 -0.024841473 0.22700001
0.032858923 -0.024841474 0.22700004
0.034330785 -0.024723724 0.22700001
0.036075324 -0.024813585 0.22700004
0.037627745 -0.024841473 0.22700001
0.03921736 -0.024841474 0.22700004
0.21215148 -0.02485764 0.22600006
0.21369386 -0.025118897 0.22600003
0.21525984 -0.024759805 0.22600003
0.21682392 -0.024732038 0.22600006
0.21840648 -0.024732035 0.22600003
0.21998915 -0.024732037 0.22600006
0.22136073 -0.025013391 0.22600004
0.22325984 -0.025189232 0.22600003
0.22479552 -0.024790656 0.22600004
0.02967971 -0.023251863 0.22700009
0.031269319 -0.023251863 0.22700004
0.032858923 -0.023251867 0.22700009
0.034420647 -0.023289047 0.22700004
0.035927754 -0.023538876 0.22700001
0.037627745 -0.023781734 0.22700001
