# .PCD v0.7 - Point Cloud Data file format
VERSION 0.7
FIELDS x y z
SIZE 4 4 4
TYPE F F F
COUNT 1 1 1
WIDTH 1362
HEIGHT 1
VIEWPOINT 0 0 0 1 0 0 0
POINTS 1362
DATA ascii
0.10476349 -0.058279432 0.22163163
0.10641026 -0.058322657 0.22200008
0.10796485 -0.058322661 0.22200008
0.10951945 -0.058322657 0.22200008
0.11124676 -0.058322657 0.22200008
0.11280134 -0.058322661 0.22200008
0.1143669 -0.058382083 0.2216775
0.11600477 -0.058355421 0.22128575
0.11755592 -0.058333259 0.22165003
0.1192375 -0.058396362 0.22177427
0.12074266 -0.058304086 0.22123338
0.12239705 -0.05832443 0.22121432
0.12395957 -0.058259044 0.22130775
0.12558536 -0.058419224 0.22148007
0.12717003 -0.058388393 0.22162077
0.12871274 -0.05835006 0.22135721
0.13032818 -0.058346655 0.2210741
0.13202272 -0.058346655 0.22107412
0.1336156 -0.05840385 0.22099999
0.13516322 -0.05840385 0.22100002
0.13688274 -0.05840385 0.22100002
0.13843034 -0.05840385 0.22099999
0.13997792 -0.05840385 0.22100002
0.14169747 -0.05840385 0.22100002
0.14324507 -0.058403842 0.22099999
0.14479265 -0.058403846 0.22100002
0.14634025 -0.058403842 0.22099999
0.14788786 -0.05840385 0.22100002
0.14940509 -0.058262236 0.22099997
0.08607015 -0.056426369 0.22100002
0.087236986 -0.056782562 0.22099997
0.088735446 -0.056856256 0.22099999
0.090454981 -0.056856256 0.22099999
0.092002578 -0.056856256 0.22099997
0.093473762 -0.056894466 0.22099997
0.095208839 -0.056880258 0.22170004
0.096734114 -0.056800682 0.22155559
0.098280706 -0.05678888 0.2211111
0.1000191 -0.05676806 0.22200006
0.10157372 -0.05676806 0.22200008
0.10330105 -0.05676806 0.22200008
0.10485565 -0.05676806 0.22200006
0.10641024 -0.05676806 0.22200008
0.10796484 -0.05676806 0.22200006
0.10951944 -0.05676806 0.22200008
0.11124674 -0.05676806 0.22200008
0.11280133 -0.05676806 0.22200006
0.11436332 -0.056809518 0.22178268
0.11611964 -0.056740787 0.22200008
0.11763787 -0.056768056 0.22200006
0.11919246 -0.05676806 0.22200008
0.12074707 -0.05676806 0.22200006
0.12230165 -0.05676806 0.22200008
0.12402894 -0.05676806 0.22200008
0.12558356 -0.05676806 0.22200006
0.12713815 -0.05676806 0.22200008
0.12883462 -0.056846846 0.22186966
0.13039301 -0.056835175 0.22188894
0.13197087 -0.056870513 0.22162968
0.13367198 -0.056805693 0.22165222
0.13521309 -0.056829736 0.22145839
0.1368131 -0.056756165 0.22123082
0.13841744 -0.056734972 0.22120002
0.13997793 -0.056856252 0.22099999
0.14169748 -0.056856256 0.22099999
0.14324506 -0.056856263 0.22099997
0.14479265 -0.056856252 0.22099999
0.14634025 -0.056856252 0.22099997
0.14788786 -0.056856252 0.22099999
0.14960739 -0.056856252 0.22099999
0.15075375 -0.056455027 0.22100002
0.084393598 -0.055007741 0.22099999
0.085668929 -0.055280011 0.22100002
0.087187842 -0.055308662 0.22099999
0.088735446 -0.05530867 0.22100002
0.090454988 -0.055308666 0.22100002
0.092002578 -0.055308662 0.22099999
0.093378231 -0.05530867 0.22099999
0.095182627 -0.055213463 0.22200008
0.096760102 -0.055243574 0.2219616
0.098418914 -0.055271458 0.221926
0.10001911 -0.055213463 0.22200008
0.10157371 -0.055213463 0.22200008
0.10330105 -0.055213455 0.22200008
0.10485564 -0.055213463 0.22200008
0.10641026 -0.055213455 0.22200008
0.10796485 -0.055213459 0.22200008
0.10951946 -0.055213455 0.22200008
0.11124676 -0.055213463 0.22200008
0.11280135 -0.055213459 0.22200008
0.11435597 -0.055213455 0.22200008
0.11608326 -0.055213455 0.22200008
0.11763785 -0.055213459 0.22200008
0.11919244 -0.055213455 0.22200008
0.12074705 -0.055213459 0.22200008
0.12230164 -0.055213463 0.22200008
0.12402894 -0.055213463 0.22200008
0.12558356 -0.055213459 0.22200008
0.12713815 -0.055213455 0.22200008
0.12886548 -0.055213455 0.22200008
0.13042009 -0.055213459 0.22200008
0.13195965 -0.055199824 0.22173084
0.13375823 -0.055372968 0.22182357
0.13525662 -0.055213459 0.22200008
0.13681398 -0.055243574 0.22196163
0.13840294 -0.055284642 0.22190915
0.13998085 -0.055307545 0.22161119
0.14160857 -0.0552122 0.22116674
0.14324507 -0.055308662 0.22099999
0.14479265 -0.055308681 0.22100002
0.14634025 -0.055308662 0.22099999
0.14788786 -0.055308677 0.22100002
0.14960739 -0.055308677 0.22100002
0.15112785 -0.055272453 0.22099997
0.15262614 -0.055098496 0.22099997
0.15384893 -0.054735482 0.22100002
0.084221646 -0.053546123 0.22099997
0.085640267 -0.053589106 0.22100002
0.087187842 -0.053589113 0.22099999
0.088735446 -0.053589117 0.22100002
0.090454988 -0.053589109 0.22100002
0.092002578 -0.053589106 0.22099999
0.09342064 -0.053613055 0.2211
0.09518262 -0.053658865 0.22200006
0.096737184 -0.053658854 0.22200008
0.098464511 -0.053658854 0.22200008
0.1000191 -0.053658858 0.22200006
0.10157372 -0.053658854 0.22200008
0.10330105 -0.053658862 0.22200008
0.10485565 -0.053658858 0.22200006
0.10641024 -0.053658854 0.22200008
0.10796484 -0.053658862 0.22200006
0.10951944 -0.053658862 0.22200008
0.11124674 -0.053658854 0.22200008
0.11280134 -0.053658858 0.22200006
0.11435594 -0.053658854 0.22200008
0.11608328 -0.053658862 0.22200008
0.11763787 -0.053658858 0.22200006
0.11919246 -0.053658854 0.22200008
0.12074708 -0.053658862 0.22200006
0.12230165 -0.053658862 0.22200008
0.12402894 -0.053658854 0.22200008
0.12558356 -0.053658858 0.22200006
0.12713815 -0.053658854 0.22200008
0.1288655 -0.053658854 0.22200008
0.13042009 -0.053658862 0.22200006
0.13203365 -0.053762689 0.22162074
0.13370237 -0.05362365 0.22177783
0.13525662 -0.053658862 0.22200006
0.13681123 -0.053658854 0.22200008
0.13836578 -0.053658858 0.22200006
0.13992038 -0.053658854 0.22200008
0.14172536 -0.053775035 0.22176932
0.14320017 -0.053650666 0.22137505
0.14479996 -0.053573623 0.22114819
0.14634025 -0.053589117 0.22099999
0.14788786 -0.053589109 0.22100002
0.14960738 -0.053589109 0.22100002
0.15115498 -0.053589106 0.22099999
0.15270258 -0.053589106 0.22100002
0.15439345 -0.053560451 0.22100002
0.15588371 -0.05327386 0.22099997
0.081112124 -0.051640298 0.221
0.082373135 -0.051869571 0.22099997
0.083920717 -0.052041531 0.22099999
0.085640267 -0.052041531 0.22099999
0.08718323 -0.052061044 0.22113332
0.088808618 -0.052040335 0.22179173
0.09028998 -0.052134186 0.22172229
0.092258453 -0.05210223 0.22172728
0.093628019 -0.052104279 0.22200008
0.095182627 -0.052104283 0.22200008
0.096737176 -0.052104272 0.22200008
0.098464519 -0.052104272 0.22200008
0.10001911 -0.052104283 0.22200008
0.10157371 -0.052104272 0.22200008
0.10330105 -0.052104279 0.22200008
0.10485564 -0.052104283 0.22200008
0.10641024 -0.052104272 0.22200008
0.10796485 -0.052104287 0.22200008
0.10951945 -0.052104272 0.22200008
0.11124676 -0.052104272 0.22200008
0.11280135 -0.052104287 0.22200008
0.11435597 -0.052104272 0.22200008
0.11608327 -0.052104272 0.22200008
0.11763785 -0.052104283 0.22200008
0.11919244 -0.052104279 0.22200008
0.12074705 -0.052104283 0.22200008
0.12230164 -0.052104272 0.22200008
0.12402894 -0.052104272 0.22200008
0.12558356 -0.052104283 0.22200008
0.12713815 -0.052104272 0.22200008
0.1288655 -0.052104272 0.22200008
0.13042009 -0.052104283 0.22200008
0.13197468 -0.052104272 0.22200008
0.13370202 -0.052104272 0.22200008
0.13525662 -0.052104283 0.22200008
0.13681124 -0.052104272 0.22200008
0.13836579 -0.052104283 0.22200008
0.13992041 -0.052104272 0.22200008
0.14164776 -0.052104272 0.22200008
0.14320233 -0.052104283 0.22200008
0.14475685 -0.052104272 0.22200008
0.14644423 -0.052062865 0.22172423
0.14788784 -0.052041531 0.22099999
0.14960739 -0.052041523 0.22099999
0.15115498 -0.052041523 0.22099997
0.15265752 -0.051959585 0.22113046
0.15442212 -0.052041523 0.22099999
0.15596971 -0.052041527 0.22099997
0.15691546 -0.051783592 0.22100002
0.079578862 -0.050193012 0.22099999
0.080825545 -0.050493937 0.22100002
0.082373112 -0.050493926 0.22099999
0.08392071 -0.050493926 0.22100002
0.085613497 -0.050503265 0.22104169
0.087229803 -0.050394107 0.22185004
0.088791497 -0.050376941 0.22200008
0.090318821 -0.050340582 0.22200008
0.091945753 -0.050316863 0.22200008
0.093628019 -0.050376937 0.22200008
0.095182627 -0.050376952 0.22200008
0.096737176 -0.050376941 0.22200008
0.098464519 -0.050376941 0.22200008
0.10001911 -0.050376944 0.22200008
0.10157371 -0.050376941 0.22200008
0.10330105 -0.050376937 0.22200008
0.10485564 -0.050376944 0.22200008
0.10641026 -0.050376941 0.22200008
0.10796485 -0.050376944 0.22200008
0.10951945 -0.050376941 0.22200008
0.11124676 -0.050376937 0.22200008
0.11280134 -0.050376944 0.22200008
0.11435597 -0.050376937 0.22200008
0.11608327 -0.050376941 0.22200008
0.11763785 -0.050376952 0.22200008
0.11919244 -0.050376941 0.22200008
0.12074705 -0.050376944 0.22200008
0.12230164 -0.050376941 0.22200008
0.12402894 -0.050376941 0.22200008
0.12558356 -0.050376952 0.22200008
0.12713815 -0.050376937 0.22200008
0.12886548 -0.050376941 0.22200008
0.13042009 -0.050376944 0.22200008
0.13197468 -0.050376937 0.22200008
0.13370202 -0.050376937 0.22200008
0.13525662 -0.050376944 0.22200008
0.13681124 -0.050376937 0.22200008
0.13836579 -0.050376952 0.22200008
0.1400512 -0.050381027 0.22178133
0.14173332 -0.050242905 0.22183339
0.14320232 -0.050376952 0.22200008
0.14475685 -0.050376941 0.22200008
0.14641894 -0.050414819 0.22167864
0.14788786 -0.050493941 0.22100002
0.14956284 -0.050478917 0.22112502
0.15118004 -0.05037681 0.22182357
0.15265135 -0.050466124 0.22141182
0.1544221 -0.050493933 0.22100002
0.15596971 -0.050493926 0.22099999
0.15747039 -0.050400142 0.221
0.15889294 -0.050150026 0.22099999
0.076440692 -0.048172545 0.22100002
0.077615708 -0.048315842 0.22099999
0.079134636 -0.048745725 0.22100002
0.080825545 -0.048774391 0.22100002
0.082392223 -0.048793491 0.22099997
0.083920717 -0.04877438 0.22100002
0.085624874 -0.048842069 0.22147372
0.087236889 -0.048822347 0.22200006
0.088848926 -0.048771095 0.22190915
0.090429157 -0.048674826 0.22150005
0.09203025 -0.048908714 0.22200006
0.093628027 -0.048822347 0.22200008
0.09518262 -0.048822347 0.22200006
0.096737184 -0.048822347 0.22200008
0.098464519 -0.048822347 0.22200008
0.1000191 -0.048822347 0.22200006
0.10159291 -0.04884154 0.22200006
0.10330105 -0.048822347 0.22200008
0.10485565 -0.048822347 0.22200006
0.10641025 -0.048822347 0.22200008
0.10796484 -0.048822347 0.22200006
0.10951944 -0.048822347 0.22200008
0.11124674 -0.048822347 0.22200008
0.11280133 -0.048822347 0.22200006
0.11435594 -0.048822347 0.22200008
0.11608328 -0.048822347 0.22200008
0.11763787 -0.048822347 0.22200006
0.11919246 -0.048822347 0.22200008
0.12074707 -0.048822347 0.22200006
0.12230165 -0.048822347 0.22200008
0.12402894 -0.048822351 0.22200008
0.12558356 -0.048822347 0.22200006
0.12713815 -0.048822347 0.22200008
0.12882912 -0.04884962 0.22200008
0.13050646 -0.048966292 0.22200005
0.13197468 -0.048822347 0.22200008
0.13370202 -0.048822347 0.22200008
0.13525662 -0.048822347 0.22200006
0.13681123 -0.048822347 0.22200008
0.13836578 -0.048822347 0.22200006
0.1399204 -0.048822347 0.22200008
0.14164773 -0.048822347 0.22200008
0.1432023 -0.048822347 0.22200006
0.14475687 -0.048822347 0.22200008
0.14648783 -0.048905812 0.22186963
0.14793935 -0.048953526 0.22166672
0.14961042 -0.04885282 0.22195247
0.15114902 -0.048842881 0.22183338
0.15271334 -0.04878553 0.22135492
0.1544221 -0.048774384 0.22100002
0.15607189 -0.048827004 0.22115791
0.15749155 -0.048769586 0.22103851
0.15917705 -0.048729528 0.221
0.16044053 -0.048086569 0.22100002
0.074979067 -0.046710931 0.22100002
0.076087222 -0.047188576 0.22099997
0.077558391 -0.04722679 0.22099997
0.079105981 -0.047226787 0.22099999
0.080847189 -0.047186822 0.22123809
0.082363203 -0.047170226 0.2216316
0.083993681 -0.047250472 0.22192009
0.085711092 -0.047238961 0.22200008
0.087236889 -0.047267746 0.22200008
0.088791505 -0.04726775 0.22200008
0.090289846 -0.047249358 0.22176196
0.091929473 -0.047238965 0.22200008
0.093628019 -0.04726775 0.22200008
0.095182627 -0.04726775 0.22200008
0.096737176 -0.04726775 0.22200008
0.098464511 -0.04726775 0.22200008
0.10001911 -0.047267746 0.22200008
0.10157371 -0.04726775 0.22200008
0.10330105 -0.04726775 0.22200008
0.10485564 -0.047267742 0.22200008
0.10641024 -0.04726775 0.22200008
0.10796485 -0.047267746 0.22200008
0.10951946 -0.047267757 0.22200008
0.11124676 -0.047267757 0.22200008
0.11280134 -0.04726775 0.22200008
0.11435597 -0.04726775 0.22200008
0.11608326 -0.047267757 0.22200008
0.11763785 -0.04726775 0.22200008
0.11919244 -0.04726775 0.22200008
0.12074705 -0.047267746 0.22200008
0.12230164 -0.047267757 0.22200008
0.12402894 -0.04726775 0.22200008
0.12558356 -0.047267742 0.22200008
0.12713815 -0.04726775 0.22200008
0.12883671 -0.047238961 0.22200008
0.13042918 -0.047231384 0.22200008
0.13197468 -0.047267757 0.22200008
0.13370202 -0.047267746 0.22200008
0.13525662 -0.047267746 0.22200008
0.13681124 -0.047267757 0.22200008
0.13836579 -0.047267746 0.22200008
0.13992041 -0.04726775 0.22200008
0.14164776 -0.04726775 0.22200008
0.14320232 -0.047267746 0.22200008
0.14475685 -0.04726775 0.22200008
0.1464842 -0.047267757 0.22200008
0.14803882 -0.04726775 0.22200008
0.14959337 -0.047267757 0.22200008
0.15114799 -0.047267742 0.22200008
0.15264642 -0.047253594 0.22151621
0.15442212 -0.047226794 0.22099999
0.15596971 -0.04722679 0.22099997
0.1575173 -0.047226787 0.22099999
0.15923686 -0.047226794 0.22099999
0.16078444 -0.04722679 0.22099997
0.16228291 -0.04703027 0.22099997
0.1634784 -0.046825569 0.22100002
0.073001593 -0.045077361 0.22100002
0.07439442 -0.045541637 0.22099999
0.076010816 -0.045679208 0.22100002
0.077558398 -0.045679204 0.22099999
0.079012185 -0.045726106 0.221
0.080845118 -0.045545869 0.22196007
0.082400404 -0.045540437 0.22200008
0.083954975 -0.045540437 0.22200008
0.085682295 -0.045540437 0.22200008
0.087236889 -0.045540445 0.22200008
0.088791505 -0.045540441 0.22200008
0.090346098 -0.045540437 0.22200008
0.091900684 -0.045540441 0.22200008
0.093628019 -0.045540441 0.22200008
0.095182627 -0.045540437 0.22200008
0.096737176 -0.045540441 0.22200008
0.098464511 -0.045540437 0.22200008
0.10001911 -0.045540441 0.22200008
0.10157371 -0.045540441 0.22200008
0.10330105 -0.045540441 0.22200008
0.10485564 -0.045540441 0.22200008
0.10641026 -0.045540441 0.22200008
0.10796485 -0.045540445 0.22200008
0.10951945 -0.045540441 0.22200008
0.11124676 -0.045540441 0.22200008
0.11280134 -0.045540437 0.22200008
0.11435597 -0.045540441 0.22200008
0.11603821 -0.045600522 0.22200008
0.11766513 -0.045576807 0.22200008
0.11919244 -0.045540441 0.22200008
0.12074705 -0.045540441 0.22200008
0.12230164 -0.045540437 0.22200008
0.12402894 -0.045540437 0.22200008
0.12558356 -0.045540441 0.22200008
0.12713815 -0.045540441 0.22200008
0.12886548 -0.045540441 0.22200008
0.13042009 -0.045540441 0.22200008
0.13197468 -0.045540441 0.22200008
0.13370202 -0.045540441 0.22200008
0.13525662 -0.045787193 0.22200005
0.13681124 -0.045540441 0.22200008
0.13836579 -0.045540441 0.22200008
0.13992041 -0.045540437 0.22200008
0.14164776 -0.045540441 0.22200008
0.1432023 -0.045540437 0.22200008
0.14475685 -0.045540441 0.22200008
0.1464842 -0.045540441 0.22200008
0.1480388 -0.045540437 0.22200008
0.14959337 -0.045540437 0.22200008
0.15114799 -0.045540441 0.22200008
0.15280078 -0.045642924 0.22168581
0.1543428 -0.045575466 0.22116672
0.15596971 -0.045679204 0.22099999
0.15751728 -0.045679208 0.22100002
0.15923686 -0.045679208 0.22100002
0.16078445 -0.045679204 0.22099999
0.16233201 -0.045679208 0.22100002
0.16397344 -0.045601048 0.221
0.16542721 -0.045187898 0.22099999
0.071539991 -0.04367828 0.22099997
0.072743654 -0.043959655 0.22099999
0.074289963 -0.044038627 0.22117393
0.075972132 -0.043943252 0.22111116
0.077558383 -0.043959647 0.22099999
0.079012185 -0.043912757 0.221
0.080922574 -0.044024225 0.22200006
0.082400396 -0.04398584 0.22200006
0.08395496 -0.04398584 0.22200008
0.085682288 -0.04398584 0.22200008
0.087236889 -0.04398584 0.22200006
0.08879149 -0.04398584 0.22200008
0.090346098 -0.04398584 0.22200006
0.091900699 -0.04398584 0.22200008
0.093628034 -0.04398584 0.22200008
0.09518262 -0.04398584 0.22200006
0.096737184 -0.04398584 0.22200008
0.098446332 -0.044013113 0.22200008
0.1000191 -0.04398584 0.22200006
0.10157372 -0.04398584 0.22200008
0.10330105 -0.04398584 0.22200008
0.10485565 -0.04398584 0.22200006
0.10641025 -0.04398584 0.22200008
0.10796484 -0.04398584 0.22200006
0.10951944 -0.04398584 0.22200008
0.11124674 -0.04398584 0.22200008
0.11280134 -0.04398584 0.22200006
0.11424797 -0.044093799 0.22200006
0.11562264 -0.044388879 0.22200002
0.11798333 -0.044504032 0.22200002
0.11919246 -0.04398584 0.22200008
0.12074707 -0.04398584 0.22200006
0.12230165 -0.04398584 0.22200008
0.12402894 -0.04398584 0.22200008
0.12558356 -0.04398584 0.22200006
0.12713815 -0.04398584 0.22200008
0.12886548 -0.04398584 0.22200008
0.13042009 -0.04398584 0.22200006
0.13197468 -0.04398584 0.22200008
0.13338535 -0.044072207 0.22200005
0.13711828 -0.044235341 0.22200002
0.13836578 -0.04398584 0.22200006
0.13992038 -0.04398584 0.22200008
0.14164773 -0.04398584 0.22200008
0.1432023 -0.04398584 0.22200006
0.14475687 -0.04398584 0.22200008
0.14648421 -0.04398584 0.22200008
0.14803883 -0.04398584 0.22200006
0.14959338 -0.04398584 0.22200008
0.15114799 -0.04398584 0.22200006
0.15270258 -0.04398584 0.22200008
0.154522 -0.044077527 0.22165523
0.15591909 -0.043910492 0.22113046
0.15740266 -0.04404154 0.22099999
0.15940745 -0.044112243 0.22169571
0.16081102 -0.044064153 0.22172229
0.16242459 -0.044039775 0.22171436
0.16396804 -0.04400431 0.22116674
0.16559918 -0.043959659 0.22099999
0.16645895 -0.043959659 0.22100002
0.071196072 -0.042412069 0.22099999
0.072785087 -0.042435855 0.22112499
0.074463762 -0.042467602 0.22200008
0.075915612 -0.042530838 0.22145461
0.07756941 -0.042339403 0.22152385
0.079099089 -0.042322531 0.22168188
0.080845803 -0.042431239 0.22200008
0.082400404 -0.042431239 0.22200008
0.083793774 -0.042707611 0.22200006
0.085760809 -0.042509753 0.22200008
0.087236889 -0.042431235 0.22200008
0.088791505 -0.042431235 0.22200008
0.090346098 -0.042431235 0.22200008
0.091900684 -0.042431235 0.22200008
0.093628019 -0.042431235 0.22200008
0.095182627 -0.042431239 0.22200008
0.096677095 -0.042446259 0.22200008
0.097888745 -0.042661551 0.22200002
0.10027823 -0.043035805 0.22200002
0.10163379 -0.0424763 0.22200008
0.10330105 -0.042431235 0.22200008
0.10485564 -0.042431239 0.22200008
0.10641024 -0.042431235 0.22200008
0.10796485 -0.042431239 0.22200008
0.10951945 -0.042431239 0.22200008
0.11122641 -0.042654779 0.22200006
0.11274376 -0.042460028 0.22200005
0.11383774 -0.041740309 0.22200002
0.11937429 -0.042522151 0.22200008
0.12074705 -0.042431239 0.22200008
0.12230164 -0.042431239 0.22200008
0.12402894 -0.042431235 0.22200008
0.12558356 -0.042431239 0.22200008
0.12705964 -0.042509753 0.22200008
0.12890866 -0.04273352 0.22200006
0.13045058 -0.042553168 0.22200006
0.13192962 -0.042491321 0.22200008
0.13309744 -0.042863071 0.22200002
0.1403522 -0.042690337 0.22200002
0.14167653 -0.042460024 0.22200008
0.14320233 -0.042431239 0.22200008
0.14475685 -0.042431239 0.22200008
0.1464842 -0.042431235 0.22200008
0.1480388 -0.042431235 0.22200008
0.14959337 -0.042431235 0.22200008
0.15114799 -0.042431239 0.22200008
0.15270258 -0.042431235 0.22200008
0.15442993 -0.042431239 0.22200008
0.15603937 -0.04248536 0.22183339
0.15718184 -0.042283725 0.22142106
0.15926646 -0.042431235 0.22200008
0.16082107 -0.042431239 0.22200008
0.16232021 -0.042456947 0.2215334
0.16405158 -0.042412058 0.22099999
0.16559917 -0.042412061 0.22099997
0.16701782 -0.042025164 0.22099999
0.16835044 -0.041896202 0.22100002
0.069967829 -0.04052056 0.22099999
0.071196072 -0.040864471 0.22100002
0.072909668 -0.04080927 0.22143482
0.074431762 -0.040799927 0.2218096
0.075973958 -0.040814497 0.22182767
0.077563874 -0.040703908 0.22200008
0.079118483 -0.040703904 0.22200008
0.080845803 -0.040703908 0.22200008
0.082400404 -0.040703908 0.22200008
0.083851323 -0.040565722 0.22200008
0.085742377 -0.040658846 0.22200008
0.087236889 -0.040703908 0.22200008
0.088791497 -0.040703904 0.22200008
0.090346098 -0.040703904 0.22200008
0.091900684 -0.040703908 0.22200008
0.093628019 -0.040703904 0.22200008
0.095182627 -0.040703904 0.22200008
0.096737176 -0.040703904 0.22200008
0.098272607 -0.040588759 0.22200002
0.10009971 -0.040519666 0.22200006
0.10157371 -0.040703908 0.22200008
0.10330105 -0.040703904 0.22200008
0.10485564 -0.040703911 0.22200008
0.10641026 -0.040703908 0.22200008
0.10793757 -0.040740274 0.22200008
0.10938657 -0.041075949 0.22200005
0.11147707 -0.040761489 0.22200002
0.11280134 -0.040703908 0.22200008
0.11427744 -0.04062539 0.22200008
0.1156687 -0.040151168 0.22200003
0.11794879 -0.040220261 0.22200003
0.11929116 -0.040605206 0.22200008
0.12074705 -0.040703908 0.22200008
0.12230164 -0.040703904 0.22200008
0.12402894 -0.040703904 0.22200008
0.12558356 -0.040703908 0.22200008
0.12644723 -0.04122211 0.22200002
0.14213136 -0.041187566 0.22200003
0.14320232 -0.040703908 0.22200008
0.14475685 -0.040703904 0.22200008
0.1464842 -0.040703908 0.22200008
0.14803882 -0.040703908 0.22200008
0.14959337 -0.040703904 0.22200008
0.15114799 -0.040703904 0.22200008
0.15270258 -0.040703908 0.22200008
0.15442993 -0.040703908 0.22200008
0.15598452 -0.040703908 0.22200008
0.15732394 -0.040743116 0.22151859
0.15928116 -0.040865447 0.22183341
0.16082107 -0.0407039 0.22200008
0.16223522 -0.040779959 0.22135141
0.16405159 -0.040864468 0.22100002
0.16559918 -0.040864464 0.22099999
0.16714676 -0.040864471 0.22100002
0.16883767 -0.040835816 0.22100002
0.1703213 -0.040599927 0.22099997
0.17127368 -0.040348608 0.22100002
0.068297401 -0.038850147 0.22099997
0.069648467 -0.039144926 0.22099999
0.071102284 -0.039191823 0.221
0.072901003 -0.039157588 0.22195008
0.074424826 -0.039189525 0.22194123
0.075932503 -0.039110932 0.22200006
0.077563874 -0.039149322 0.22200006
0.079118475 -0.039149325 0.22200008
0.080845803 -0.039149325 0.22200008
0.082400396 -0.039149322 0.22200006
0.083954975 -0.039149325 0.22200008
0.085619502 -0.039384861 0.22200003
0.087340534 -0.039356597 0.22200003
0.088714719 -0.039513975 0.22200002
0.090370774 -0.039519459 0.22200002
0.092048757 -0.039297376 0.22200005
0.093628027 -0.039149322 0.22200008
0.09518262 -0.039149322 0.22200006
0.096586049 -0.039214097 0.22200006
0.099155463 -0.039667517 0.22200002
0.10012904 -0.039322052 0.22200003
0.10157372 -0.039149325 0.22200008
0.10330105 -0.039149322 0.22200008
0.10485565 -0.039149322 0.22200006
0.10641025 -0.039149314 0.22200008
0.10756179 -0.039552361 0.22200002
0.11193769 -0.039494783 0.22200002
0.11283588 -0.039183866 0.22200006
0.11435594 -0.039149325 0.22200008
0.11584145 -0.039391145 0.22200003
0.11771189 -0.039198671 0.22200005
0.11919246 -0.039149325 0.22200008
0.12074707 -0.039149322 0.22200006
0.12230165 -0.039149322 0.22200008
0.12402894 -0.039149314 0.22200008
0.12533407 -0.039283667 0.22200002
0.14337504 -0.039149314 0.22200005
0.14473869 -0.039158415 0.22200008
0.14648421 -0.039149314 0.22200008
0.14803883 -0.039149322 0.22200006
0.14959338 -0.039149322 0.22200008
0.15114799 -0.039149322 0.22200006
0.15270258 -0.039149325 0.22200008
0.15442993 -0.039149325 0.22200008
0.15598452 -0.039149325 0.22200006
0.15748084 -0.039259564 0.22151729
0.15910764 -0.039110221 0.22152634
0.16085559 -0.039114773 0.22200006
0.16249171 -0.039237339 0.2217408
0.16397528 -0.039109789 0.22113799
0.16559917 -0.039144926 0.22099999
0.16714676 -0.039144922 0.22100002
0.16886634 -0.039144929 0.22100002
0.17041388 -0.039144926 0.22099999
0.17149255 -0.039144926 0.22099997
0.066983178 -0.037339397 0.22100002
0.068100892 -0.037597336 0.22099999
0.069648474 -0.037597336 0.22099997
0.071137637 -0.037568618 0.22105554
0.07298737 -0.037707251 0.22195005
0.074454673 -0.037594728 0.22200008
0.076009274 -0.037594728 0.22200008
0.077563874 -0.037594728 0.22200008
0.079118483 -0.037594732 0.22200008
0.080845803 -0.037594732 0.22200008
0.082400404 -0.037594728 0.22200008
0.083860748 -0.037547622 0.22200008
0.092591621 -0.038285654 0.22200002
0.093714386 -0.038026553 0.22200005
0.095182613 -0.03784148 0.22200005
0.096219003 -0.038112924 0.22200002
0.10209192 -0.038285654 0.22200002
0.10335863 -0.037997767 0.22200005
0.10487483 -0.038055342 0.22200002
0.10597841 -0.038199291 0.22200002
0.11815607 -0.038285654 0.22200002
0.11927097 -0.037673246 0.22200008
0.12074705 -0.037594728 0.22200008
0.12212893 -0.037832234 0.22200006
0.12368351 -0.038285654 0.22200002
0.13427779 -0.037018947 0.22200002
0.13530597 -0.037347965 0.22200005
0.13681124 -0.03753465 0.22200008
0.13833122 -0.037387449 0.22200006
0.13922946 -0.037076525 0.22200002
0.14337504 -0.037754174 0.22200005
0.14475685 -0.037594732 0.22200008
0.1464842 -0.037594728 0.22200008
0.14803882 -0.037594728 0.22200008
0.14959337 -0.037594732 0.22200008
0.15114799 -0.037594728 0.22200008
0.15270258 -0.037594732 0.22200008
0.15442993 -0.037594732 0.22200008
0.15598454 -0.037594728 0.22200008
0.15753913 -0.037594732 0.22200008
0.15923767 -0.037623521 0.22200008
0.16082107 -0.037767462 0.22200006
0.16237566 -0.037594732 0.22200008
0.16410321 -0.037569411 0.22160614
0.16554184 -0.037883922 0.22099999
0.16714676 -0.03759734 0.22099999
0.16886632 -0.037597328 0.22099999
0.17036702 -0.03780055 0.22099997
0.17138831 -0.037998557 0.22100002
0.065349609 -0.035533875 0.22100002
0.066430472 -0.035828654 0.22099997
0.068129562 -0.036035411 0.22100002
0.069608718 -0.036115941 0.22105554
0.070968173 -0.035922904 0.22169232
0.073001005 -0.03589322 0.22185719
0.074454673 -0.036040131 0.22200006
0.076009274 -0.036040127 0.22200008
0.077563874 -0.036040127 0.22200006
0.079118475 -0.036040127 0.22200008
0.080845803 -0.036040127 0.22200008
0.082400396 -0.036040127 0.22200006
0.083954968 -0.036040127 0.22200008
0.085380033 -0.03578103 0.22200002
0.08747872 -0.036143769 0.22200003
0.088100567 -0.035867397 0.22200002
0.11960703 -0.03610922 0.22200003
0.12060312 -0.036126494 0.22200005
0.13422021 -0.03655833 0.22200002
0.13530372 -0.036244269 0.22200003
0.1368688 -0.036097705 0.22200006
0.13827276 -0.036133137 0.22200005
0.14494114 -0.036120735 0.22200006
0.14648421 -0.036040127 0.22200008
0.14803883 -0.036040127 0.22200006
0.14959338 -0.036040127 0.22200008
0.15114799 -0.036040127 0.22200006
0.15270258 -0.036040127 0.22200008
0.15442993 -0.036040127 0.22200008
0.15598452 -0.036040127 0.22200006
0.15753911 -0.036040127 0.22200008
0.15899009 -0.035591025 0.22200003
0.16275565 -0.036143769 0.22200003
0.16423665 -0.036068801 0.2217693
0.16553617 -0.035949647 0.22119048
0.16703212 -0.036049731 0.22099999
0.06519676 -0.034253769 0.22099999
0.066381343 -0.034330189 0.22100002
0.068043552 -0.034399789 0.22123811
0.069645442 -0.034449171 0.22200008
0.071172744 -0.03448553 0.22200008
0.072900072 -0.03448553 0.22200008
0.074454673 -0.03448553 0.22200008
0.076009274 -0.034485526 0.22200008
0.077563874 -0.03448553 0.22200008
0.079118483 -0.034485534 0.22200008
0.080845803 -0.034485526 0.22200008
0.082400404 -0.034485534 0.22200008
0.08395496 -0.03448553 0.22200008
0.085444801 -0.03444235 0.22200006
0.1373294 -0.035176467 0.22200002
0.13802032 -0.035176467 0.22200002
0.14510237 -0.034312807 0.22200003
0.1464842 -0.03448553 0.22200008
0.14803882 -0.034485534 0.22200008
0.14959337 -0.03448553 0.22200008
0.15119553 -0.034424514 0.22190915
0.1525186 -0.034354128 0.22130008
0.15444763 -0.034538861 0.22172226
0.15598452 -0.034485534 0.22200008
0.15753913 -0.034485526 0.22200008
0.15926646 -0.03448553 0.22200008
0.16078268 -0.034408763 0.22200006
0.16242073 -0.034425449 0.22200008
0.1641721 -0.034428064 0.22162865
0.1655992 -0.034330193 0.22099999
0.16714674 -0.034330193 0.22100002
0.16882145 -0.034270387 0.221
0.17036475 -0.034084547 0.22099997
0.17177045 -0.033833437 0.22099999
0.06497705 -0.032696623 0.22099997
0.066381343 -0.032782607 0.22099999
0.068006359 -0.032819685 0.22125
0.069618158 -0.032758214 0.22200008
0.071172744 -0.032758206 0.22200008
0.072900072 -0.032758217 0.22200008
0.074454673 -0.032758202 0.22200008
0.076009274 -0.032758206 0.22200008
0.077563874 -0.032758214 0.22200008
0.079118483 -0.032758202 0.22200008
0.080845803 -0.032758206 0.22200008
0.082400404 -0.032758206 0.22200008
0.083954975 -0.032758206 0.22200008
0.085682295 -0.032758217 0.22200008
0.086833857 -0.032470319 0.22200002
0.13750213 -0.032067277 0.22200002
0.13841289 -0.03238133 0.22200003
0.13987102 -0.032388065 0.22200005
0.14150952 -0.032274552 0.22200003
0.14354777 -0.032240011 0.22200002
0.14478564 -0.032729417 0.22200008
0.1464842 -0.032758214 0.22200008
0.14803882 -0.032758214 0.22200008
0.14959337 -0.03275821 0.22200008
0.15119553 -0.032791696 0.22190915
0.15261921 -0.032716826 0.2214828
0.15444703 -0.03261764 0.22178954
0.15598454 -0.032758206 0.22200008
0.15753913 -0.032758217 0.22200008
0.15926646 -0.032758202 0.22200008
0.16082107 -0.032758214 0.22200008
0.16237566 -0.032758217 0.22200008
0.16409414 -0.032756325 0.22162509
0.16549994 -0.032918438 0.22118181
0.16722319 -0.032820813 0.22099997
0.16886631 -0.032782607 0.22099999
0.17036401 -0.032658882 0.22133334
0.17220226 -0.033023339 0.22099999
0.1731406 -0.032708906 0.22099999
0.063845009 -0.031106045 0.22099999
0.064833738 -0.031235013 0.22099999
0.066381335 -0.031235008 0.22100002
0.067990884 -0.03126312 0.22120002
0.069618165 -0.031203613 0.22200006
0.071172751 -0.031203618 0.22200008
0.072900072 -0.031203616 0.22200008
0.074454673 -0.031203615 0.22200006
0.076009274 -0.031203616 0.22200008
0.077563874 -0.031203613 0.22200006
0.079118475 -0.031203613 0.22200008
0.080845803 -0.031203616 0.22200008
0.082400396 -0.031203616 0.22200006
0.083954975 -0.031203613 0.22200008
0.085682295 -0.031203613 0.22200008
0.08703275 -0.031250719 0.22200003
0.13707696 -0.031163752 0.22200005
0.13836578 -0.031203613 0.22200006
0.13992038 -0.031203616 0.22200008
0.14164773 -0.031203613 0.22200008
0.1432156 -0.031243471 0.22200005
0.14475687 -0.031203616 0.22200008
0.14648421 -0.031203618 0.22200008
0.14803883 -0.031203613 0.22200006
0.14959338 -0.031203613 0.22200008
0.15114799 -0.031203616 0.22200006
0.15270258 -0.031203616 0.22200008
0.15442993 -0.031203613 0.22200008
0.15598452 -0.031203618 0.22200006
0.15753911 -0.031203613 0.22200008
0.15926646 -0.031203616 0.22200008
0.16082105 -0.031203613 0.22200006
0.16237566 -0.031203613 0.22200008
0.16416086 -0.031253371 0.22190915
0.16560134 -0.031223383 0.22137041
0.16714677 -0.031235008 0.22100002
0.16862598 -0.031073151 0.22107141
0.17044891 -0.031199964 0.22163643
0.17203102 -0.031110726 0.22104762
0.17338011 -0.031235009 0.22099997
0.063682966 -0.029462555 0.22099997
0.064833745 -0.02951546 0.22099999
0.066381335 -0.029515468 0.22100002
0.068021774 -0.029555529 0.22130004
0.069618165 -0.029649019 0.22200008
0.071172744 -0.029649019 0.22200008
0.072900079 -0.029649019 0.22200008
0.074454673 -0.029649019 0.22200008
0.076009274 -0.029649019 0.22200008
0.077563874 -0.029649019 0.22200008
0.079118483 -0.029649019 0.22200008
0.080644257 -0.030023277 0.22200005
0.082285225 -0.030224795 0.22200002
0.084112018 -0.030088704 0.22200003
0.08568231 -0.030167218 0.22200003
0.087064169 -0.030339951 0.22200002
0.13750213 -0.030339951 0.22200002
0.13848095 -0.030224795 0.22200002
0.1400113 -0.029830845 0.22200008
0.14164776 -0.029649019 0.22200008
0.14312379 -0.029900266 0.22200003
0.1449872 -0.0298563 0.22200006
0.1464842 -0.029649019 0.22200008
0.14803882 -0.029649019 0.22200008
0.14959337 -0.029649019 0.22200008
0.15114799 -0.029649019 0.22200008
0.15270258 -0.029649019 0.22200008
0.15442993 -0.029649019 0.22200008
0.15598452 -0.029649019 0.22200008
0.15753913 -0.029649019 0.22200008
0.15926646 -0.029649019 0.22200008
0.16082107 -0.029649019 0.22200008
0.16237566 -0.029649019 0.22200008
0.16410302 -0.029649019 0.22200008
0.16560312 -0.029577684 0.22146675
0.16711809 -0.029544121 0.22100002
0.16886634 -0.029515456 0.22100002
0.17041388 -0.029515464 0.22099999
0.17196152 -0.02951546 0.22100002
0.17345177 -0.029458145 0.22099997
0.062254429 -0.027452007 0.22100002
0.063387312 -0.027897064 0.22099997
0.064833753 -0.02796787 0.22099997
0.066381335 -0.027967874 0.22099999
0.06807673 -0.027763991 0.22166672
0.069618165 -0.027921688 0.22200008
0.071172744 -0.027921686 0.22200008
0.072900072 -0.027921682 0.22200008
0.074454673 -0.027921686 0.22200008
0.076009274 -0.027921692 0.22200008
0.077563874 -0.027921688 0.22200008
0.079118483 -0.027921682 0.22200008
0.080154859 -0.027806535 0.22200002
0.14169706 -0.028513918 0.22200002
0.14337504 -0.028094424 0.22200002
0.14544784 -0.028439891 0.22200002
0.1464842 -0.027921686 0.22200008
0.14803882 -0.027921688 0.22200008
0.14959337 -0.027921692 0.22200008
0.15114799 -0.027921692 0.22200008
0.15270258 -0.027921682 0.22200008
0.15442993 -0.027921684 0.22200008
0.15598452 -0.027921686 0.22200008
0.15753911 -0.027921684 0.22200008
0.15926646 -0.027921684 0.22200008
0.16082107 -0.027921686 0.22200008
0.16237566 -0.027921682 0.22200008
0.16410302 -0.027921688 0.22200008
0.165718 -0.028023999 0.22194742
0.16713756 -0.02791252 0.22156672
0.16881679 -0.02782434 0.2212308
0.17039184 -0.027792368 0.22123811
0.17196152 -0.027967874 0.22099999
0.17364484 -0.027940718 0.22099997
0.17482741 -0.027566643 0.22100002
0.062101576 -0.026343854 0.22099999
0.063286163 -0.026420284 0.22100002
0.064792775 -0.026484065 0.22105554
0.066362485 -0.026464911 0.22177278
0.068063572 -0.026367098 0.22200008
0.069618165 -0.026367096 0.22200006
0.071172751 -0.026367094 0.22200008
0.072900072 -0.026367098 0.22200008
0.074454673 -0.026367096 0.22200006
0.076009274 -0.026367094 0.22200008
0.077563874 -0.026367096 0.22200006
0.079118475 -0.026367094 0.22200008
0.080327593 -0.026367094 0.22200002
0.14363414 -0.026194364 0.22200002
0.14436825 -0.026237547 0.22200002
0.14648424 -0.026827717 0.22200002
0.14810792 -0.026608923 0.22200003
0.14962974 -0.026394373 0.22200008
0.15114799 -0.026367098 0.22200006
0.15270258 -0.026367094 0.22200008
0.15442993 -0.026367094 0.22200008
0.15598454 -0.026367098 0.22200006
0.15753913 -0.026367098 0.22200008
0.15926646 -0.026367094 0.22200008
0.16082107 -0.026367096 0.22200006
0.16237566 -0.026367094 0.22200008
0.16418041 -0.026461938 0.22183341
0.16570689 -0.026293069 0.22200005
0.16721219 -0.026367098 0.22200008
0.16876678 -0.026367098 0.22200006
0.17038575 -0.026448794 0.22186963
0.17186181 -0.026392452 0.22121881
0.17368107 -0.02642028 0.22100002
0.17522863 -0.026420277 0.22099999
0.17646097 -0.026162347 0.22099997
0.062197108 -0.024586096 0.221
0.06328617 -0.024700735 0.22100002
0.064759843 -0.02473799 0.22133334
0.066336259 -0.024812503 0.22200008
0.068063587 -0.024812503 0.22200008
0.069618158 -0.024812501 0.22200008
0.071172744 -0.024812505 0.22200008
0.072900079 -0.024812505 0.22200008
0.074454673 -0.024812503 0.22200008
0.076009274 -0.02481251 0.22200008
0.077563874 -0.024812501 0.22200008
0.079075292 -0.02511478 0.22200006
0.080270015 -0.025388278 0.22200002
0.14606968 -0.024259757 0.22200003
0.15001565 -0.025119582 0.22200002
0.15117526 -0.024848865 0.22200008
0.15270258 -0.024812503 0.22200008
0.15442993 -0.024812505 0.22200008
0.15598452 -0.024812501 0.22200008
0.15753911 -0.024812508 0.22200008
0.15926646 -0.024812505 0.22200008
0.16082107 -0.024812501 0.22200008
0.16237566 -0.024812505 0.22200008
0.16410302 -0.024812505 0.22200008
0.16565756 -0.024812501 0.22200008
0.16721219 -0.024812503 0.22200008
0.1687668 -0.024812505 0.22200008
0.17040528 -0.02477337 0.22186215
0.17185578 -0.024744654 0.22119363
0.17368104 -0.024700735 0.22100002
0.17522864 -0.024700735 0.22099999
0.17677622 -0.024700735 0.22100002
0.17801431 -0.024219261 0.221
0.061717067 -0.023088662 0.22099997
0.063286155 -0.023153143 0.22099999
0.064784221 -0.0231966 0.22141667
0.066336259 -0.023257911 0.22200008
0.068063572 -0.023257909 0.22200008
0.069618165 -0.023257909 0.22200006
0.071172751 -0.023257911 0.22200008
0.072900079 -0.023257909 0.22200008
0.074454673 -0.023257909 0.22200006
0.076009274 -0.023257911 0.22200008
0.077444285 -0.02329777 0.22200005
0.14544784 -0.023430642 0.22200002
0.14639786 -0.023214728 0.22200006
0.15149349 -0.023776107 0.22200002
0.15278231 -0.023483792 0.22200005
0.15446629 -0.023285184 0.22200008
0.15598452 -0.023257909 0.22200006
0.15753913 -0.023257911 0.22200008
0.15926646 -0.023257909 0.22200008
0.16082107 -0.023257909 0.22200006
0.16237566 -0.023257909 0.22200008
0.164103 -0.023257909 0.22200008
0.16565755 -0.023257911 0.22200006
0.16721219 -0.023257909 0.22200008
0.16876678 -0.023257909 0.22200006
0.17042273 -0.023240449 0.22183339
0.17183608 -0.023156559 0.22118185
0.17368105 -0.023153143 0.22099999
0.17522863 -0.023153141 0.22099997
0.17677622 -0.023153141 0.22099999
0.17845954 -0.023125991 0.22099997
0.17975678 -0.022866553 0.221
0.059159245 -0.021089688 0.22100002
0.060083501 -0.021455089 0.22099997
0.061566602 -0.021605549 0.22100002
0.063155152 -0.021638302 0.22099999
0.064808927 -0.021666944 0.22200008
0.066336252 -0.021703312 0.22200008
0.068063587 -0.02170331 0.22200008
0.069618151 -0.021703316 0.22200008
0.071172744 -0.02170331 0.22200008
0.072900072 -0.02170331 0.22200008
0.074454673 -0.021703312 0.22200008
0.076009274 -0.021703312 0.22200008
0.077536605 -0.021666948 0.22200008
0.079082109 -0.021521484 0.22200008
0.080270015 -0.021127537 0.22200002
0.14544784 -0.021703314 0.22200002
0.14648421 -0.021876043 0.22200008
0.15512086 -0.022394245 0.22200002
0.15615726 -0.022196839 0.22200002
0.15753911 -0.021703312 0.22200008
0.15926646 -0.021703312 0.22200008
0.16082107 -0.021703312 0.22200008
0.16237566 -0.021703312 0.22200008
0.16410302 -0.021703312 0.22200008
0.16571023 -0.021610772 0.2217038
0.16699769 -0.021675091 0.22135003
0.16882437 -0.021760887 0.22200006
0.17034476 -0.021712778 0.22196163
0.17194821 -0.021683129 0.22146882
0.17376202 -0.021643676 0.22125001
0.1751443 -0.021543203 0.22113043
0.17677622 -0.021605546 0.22100002
0.17849576 -0.021605551 0.22100002
0.17997256 -0.0217067 0.22099997
0.05898729 -0.020057958 0.22099999
0.060019016 -0.020057959 0.22099997
0.061566602 -0.020057963 0.22099999
0.063241035 -0.020008406 0.22115788
0.064808935 -0.019939624 0.22200008
0.066336259 -0.019975988 0.22200008
0.068063587 -0.019975988 0.22200008
0.069618165 -0.019975986 0.22200008
0.071172744 -0.019975986 0.22200008
0.072900079 -0.019975988 0.22200008
0.074454673 -0.019975988 0.22200008
0.075980484 -0.020004777 0.22200008
0.077613227 -0.020198071 0.22200005
0.079147272 -0.020004777 0.22200008
0.080475643 -0.019926636 0.22200005
0.15028435 -0.019285055 0.22200002
0.15114802 -0.019285055 0.22200002
0.15218441 -0.019285055 0.22200002
0.15778589 -0.020099368 0.22200005
0.15926646 -0.019975988 0.22200008
0.16082107 -0.01997599 0.22200008
0.16237566 -0.019975988 0.22200008
0.16410302 -0.019975988 0.22200008
0.16569163 -0.020036805 0.22176005
0.16705312 -0.019870805 0.22157148
0.16879407 -0.019939626 0.22200008
0.17024277 -0.020032227 0.22195658
0.17204863 -0.019975988 0.22200008
0.17373085 -0.019989651 0.22183341
0.17500208 -0.020026432 0.22138467
0.17677623 -0.020057961 0.22099999
0.17851727 -0.020036465 0.22099997
0.17961349 -0.020315891 0.22100002
0.058700699 -0.01845305 0.22099997
0.060019016 -0.018510368 0.22099999
0.061566602 -0.018510366 0.22100002
0.063251078 -0.018484524 0.22161116
0.064781658 -0.018421389 0.22200006
0.066336259 -0.018421393 0.22200008
0.067986801 -0.018402202 0.22200006
0.069618158 -0.018421391 0.22200006
0.07105083 -0.018390909 0.22200006
0.073092014 -0.018325428 0.22200002
0.074454673 -0.018421391 0.22200006
0.075716957 -0.018434681 0.22200005
0.079291195 -0.01893959 0.22200002
0.15001565 -0.018287044 0.22200002
0.15114799 -0.018421391 0.22200006
0.1527026 -0.018421393 0.22200008
0.15436897 -0.018329944 0.22200006
0.15602438 -0.018301807 0.22200005
0.15757549 -0.018394118 0.22200008
0.15926646 -0.018421389 0.22200008
0.16082107 -0.018421391 0.22200006
0.16237566 -0.018421387 0.22200008
0.164103 -0.018421391 0.22200008
0.16565756 -0.018421393 0.22200006
0.16721219 -0.018421391 0.22200008
0.16895026 -0.018430023 0.22172736
0.16994834 -0.018433817 0.22137502
0.17204863 -0.018421393 0.22200008
0.1737974 -0.018405838 0.22171433
0.17506951 -0.018506492 0.22125931
0.17677622 -0.018510368 0.22100002
0.17840199 -0.018510364 0.221
0.058670532 -0.016827023 0.22099997
0.060019016 -0.01679082 0.22099999
0.061506797 -0.016835678 0.221
0.06332127 -0.016819691 0.22200008
0.064781651 -0.016866799 0.22200008
0.066336259 -0.016866801 0.22200008
0.068142094 -0.016835392 0.22200008
0.069618158 -0.016866798 0.22200008
0.071172744 -0.016866801 0.22200008
0.072900072 -0.016866801 0.22200008
0.074454673 -0.016866799 0.22200008
0.075910568 -0.016768094 0.22200008
0.14700243 -0.016175866 0.22200002
0.14993887 -0.017039532 0.22200005
0.15117526 -0.016903162 0.22200008
0.15270258 -0.016866798 0.22200008
0.15442993 -0.016866801 0.22200008
0.15598454 -0.016866799 0.22200008
0.15753913 -0.016866799 0.22200008
0.15926646 -0.016866801 0.22200008
0.16082107 -0.016866799 0.22200008
0.16237566 -0.016866801 0.22200008
0.16410302 -0.016866801 0.22200008
0.16565758 -0.016866799 0.22200008
0.16721219 -0.016866798 0.22200008
0.16890882 -0.01692863 0.2217693
0.17026579 -0.016785335 0.22148004
0.17188935 -0.016688472 0.22128005
0.17370369 -0.016880903 0.22124146
0.17522864 -0.01679082 0.22099999
0.17677622 -0.01679082 0.22100002
0.17849576 -0.016790822 0.22100002
0.17961349 -0.016360933 0.22100002
0.057439696 -0.014727364 0.22100002
0.058572579 -0.015172424 0.22099997
0.06001902 -0.01524323 0.22099997
0.0615304 -0.015216078 0.22099997
0.063358665 -0.01517237 0.22200008
0.064781651 -0.015139468 0.22200008
0.066336259 -0.015139466 0.22200008
0.068063587 -0.015139469 0.22200008
0.069618151 -0.015139468 0.22200008
0.071172744 -0.01513947 0.22200008
0.072871283 -0.015125073 0.22200008
0.074376158 -0.015013847 0.22200003
0.076115571 -0.015272339 0.22200005
0.14717516 -0.015830401 0.22200002
0.15132076 -0.015830401 0.22200002
0.15285066 -0.015731694 0.22200002
0.15445872 -0.015168256 0.22200008
0.15598452 -0.01513947 0.22200008
0.15753913 -0.015139472 0.22200008
0.15926646 -0.015139469 0.22200008
0.16082107 -0.01513947 0.22200008
0.16237566 -0.015139469 0.22200008
0.16410302 -0.01513947 0.22200008
0.16565758 -0.015139468 0.22200008
0.16721219 -0.015139469 0.22200008
0.1687668 -0.015139468 0.22200008
0.17032133 -0.01513947 0.22200008
0.17181782 -0.015208642 0.2213334
0.17368105 -0.01524323 0.22099999
0.17522863 -0.015243229 0.22099997
0.17677623 -0.015243229 0.22099999
0.17849576 -0.01524323 0.22099999
0.17975679 -0.015300547 0.22099999
0.056974407 -0.013554026 0.22099997
0.058471426 -0.01369564 0.22100002
0.059991866 -0.013731835 0.22099997
0.061535683 -0.013724743 0.22125004
0.063224718 -0.013529276 0.22172226
0.064781651 -0.013584875 0.22200006
0.066336259 -0.013584875 0.22200008
0.068063572 -0.013584876 0.22200008
0.069618165 -0.013584874 0.22200006
0.071172751 -0.013584875 0.22200008
0.072900072 -0.013584876 0.22200008
0.074454673 -0.013584876 0.22200006
0.075972907 -0.013557602 0.22200008
0.077506296 -0.013181832 0.22200002
0.15474661 -0.013584875 0.22200005
0.15598452 -0.013584875 0.22200006
0.15753911 -0.013584876 0.22200008
0.15926646 -0.013584876 0.22200008
0.16082107 -0.013584875 0.22200006
0.16237566 -0.013584875 0.22200008
0.164103 -0.013584875 0.22200008
0.16565756 -0.013584874 0.22200006
0.16721219 -0.013584876 0.22200008
0.16876678 -0.013584874 0.22200006
0.170361 -0.013532416 0.22190915
0.17190306 -0.013709683 0.22122589
0.17368105 -0.013695639 0.22100002
0.17522863 -0.013695635 0.22099999
0.17677622 -0.013695637 0.22100002
0.17849576 -0.013695636 0.22100002
0.17952751 -0.014211501 0.22100002
0.056811679 -0.012020946 0.221
0.058377635 -0.012022986 0.221
0.059987742 -0.01196952 0.22194451
0.061499719 -0.012030279 0.22200008
0.063227057 -0.012030279 0.22200008
0.064781651 -0.01203028 0.22200008
0.066336252 -0.012030279 0.22200008
0.068063587 -0.012030281 0.22200008
0.069618158 -0.01203028 0.22200008
0.071172744 -0.012030278 0.22200008
0.072900079 -0.012030278 0.22200008
0.074454673 -0.012030279 0.22200008
0.075964212 -0.012090358 0.22200008
0.077045672 -0.012548478 0.22200002
0.15028435 -0.011339349 0.22200002
0.15122207 -0.011487405 0.22200002
0.15265942 -0.011468899 0.22200002
0.15452863 -0.011948027 0.22200008
0.15598452 -0.012030279 0.22200008
0.15753913 -0.012030277 0.22200008
0.15926646 -0.012030279 0.22200008
0.16082105 -0.012030281 0.22200008
0.16237566 -0.012030278 0.22200008
0.16410302 -0.012030278 0.22200008
0.16565758 -0.012030279 0.22200008
0.1672122 -0.012030277 0.22200008
0.16889676 -0.011936902 0.22180007
0.17028458 -0.012067013 0.22140005
0.1719615 -0.011976089 0.22100002
0.17368105 -0.011976087 0.22100002
0.17522863 -0.011976088 0.22099999
0.1767762 -0.011976089 0.22100002
0.17849576 -0.01197609 0.22100002
0.17952751 -0.011632179 0.22100002
0.056923833 -0.010944362 0.22100002
0.058373172 -0.010428498 0.22099997
0.059945118 -0.010302952 0.22200008
0.061499719 -0.010302953 0.22200008
0.063227057 -0.010302952 0.22200008
0.064781658 -0.010302952 0.22200008
0.066336259 -0.010302952 0.22200008
0.068063587 -0.010302952 0.22200008
0.069618151 -0.010302953 0.22200008
0.071172744 -0.010302952 0.22200008
0.072900072 -0.010302952 0.22200008
0.07436166 -0.010568695 0.22200005
0.075491078 -0.010993884 0.22200002
0.15028435 -0.010389319 0.22200002
0.15114799 -0.010302952 0.22200008
0.15270258 -0.010302952 0.22200008
0.15442993 -0.010302952 0.22200008
0.15598454 -0.010302953 0.22200008
0.15753911 -0.010302952 0.22200008
0.15926646 -0.010302952 0.22200008
0.16082107 -0.010302952 0.22200008
0.16237566 -0.010302952 0.22200008
0.16410302 -0.010302952 0.22200008
0.16565758 -0.010302952 0.22200008
0.16721219 -0.010302952 0.22200008
0.16889675 -0.010376208 0.22180007
0.17027105 -0.010280814 0.22153851
0.17213786 -0.01033068 0.22137505
0.17368105 -0.010428497 0.22099999
0.17522863 -0.010428498 0.22099997
0.17677623 -0.010428499 0.22099999
0.17839463 -0.010499301 0.22099997
0.057439696 -0.0085369963 0.22100002
0.058399025 -0.0087904036 0.22099997
0.05997967 -0.0087829046 0.22200006
0.061499722 -0.0087483581 0.22200008
0.063227057 -0.0087483572 0.22200008
0.064781658 -0.0087483563 0.22200006
0.066336252 -0.0087483572 0.22200008
0.068063572 -0.0087483581 0.22200008
0.069618165 -0.0087483572 0.22200006
0.071172759 -0.0087483572 0.22200008
0.072778158 -0.0087788403 0.22200006
0.15028435 -0.00823016 0.22200002
0.15114799 -0.0087483572 0.22200006
0.15270258 -0.0087483572 0.22200008
0.15442993 -0.0087483581 0.22200008
0.15598452 -0.0087483581 0.22200006
0.15753913 -0.0087483581 0.22200008
0.15926646 -0.0087483572 0.22200008
0.16082107 -0.0087483563 0.22200006
0.16237566 -0.0087483581 0.22200008
0.164103 -0.0087483581 0.22200008
0.16565756 -0.0087483572 0.22200006
0.16721219 -0.0087483581 0.22200008
0.16876678 -0.0087483572 0.22200006
0.17042206 -0.0088053998 0.2217693
0.17210449 -0.0088315317 0.22142315
0.17362943 -0.0089440076 0.22108698
0.17517412 -0.0088552888 0.22119048
0.17675871 -0.0088454969 0.22107412
0.17823279 -0.0088202152 0.22099997
0.057439696 -0.0071613588 0.221
0.058411621 -0.0071165017 0.221
0.06003657 -0.0072547277 0.22200006
0.061499719 -0.0071937651 0.22200008
0.063227057 -0.0071937633 0.22200008
0.064781658 -0.0071937628 0.22200008
0.066336259 -0.0071937651 0.22200008
0.068063587 -0.0071937637 0.22200008
0.069618158 -0.0071937637 0.22200008
0.071172744 -0.0071937637 0.22200008
0.07287129 -0.0071649738 0.22200008
0.074074663 -0.0067792051 0.22200003
0.15011162 -0.0070210309 0.22200002
0.15117526 -0.0072301291 0.22200008
0.15270258 -0.0071937637 0.22200008
0.15442993 -0.0071937628 0.22200008
0.15598452 -0.0071937628 0.22200008
0.15753913 -0.0071937628 0.22200008
0.15926646 -0.0071937637 0.22200008
0.16082107 -0.0071937642 0.22200008
0.16237566 -0.0071937633 0.22200008
0.16410302 -0.0071937656 0.22200008
0.16565758 -0.0071937628 0.22200008
0.1672122 -0.0071937647 0.22200008
0.1687668 -0.0071937637 0.22200008
0.17038155 -0.0072130118 0.22186214
0.17193718 -0.0072071818 0.2215417
0.17360801 -0.0071103885 0.22194123
0.175118 -0.0071779797 0.22151437
0.17677622 -0.0071613593 0.22100002
0.17849576 -0.0071613584 0.22100002
0.17967489 -0.0069157099 0.22099999
0.057439696 -0.0056137675 0.22100002
0.05847143 -0.0056137671 0.22099999
0.059962697 -0.0055803661 0.22123078
0.061536085 -0.0056664431 0.22200008
