# .PCD v0.7 - Point Cloud Data file format
VERSION 0.7
FIELDS x y z
SIZE 4 4 4
TYPE F F F
COUNT 1 1 1
WIDTH 1376
HEIGHT 1
VIEWPOINT 0 0 0 1 0 0 0
POINTS 1376
DATA ascii
0.095445938 0.0682282 0.2132017
0.093126535 0.069390252 0.21306242
0.091327421 0.06943991 0.21265595
0.18975073 0.020387577 0.2097373
0.18820888 0.021548573 0.2104547
0.18638602 0.02264859 0.21147251
0.18486534 0.024394689 0.2118531
0.096119732 0.06524384 0.21404438
0.09424337 0.065923303 0.21293451
0.091885395 0.067082159 0.21225794
0.0897571 0.067661025 0.21251501
0.087468892 0.067981064 0.21226121
0.19107606 0.016885292 0.21071404
0.18942781 0.017926268 0.21085222
0.18726246 0.019224765 0.21171059
0.18592465 0.020571461 0.21183743
0.09267728 0.064394183 0.21308404
0.09071824 0.064466469 0.21339601
0.088565163 0.065748103 0.2125729
0.086127132 0.066696383 0.2123003
0.08428596 0.066780679 0.21234816
0.19225132 0.013007056 0.21069548
0.19060026 0.014541775 0.21091849
0.18855098 0.015884588 0.21146818
0.18684009 0.017272413 0.21182385
0.089572184 0.063377261 0.21405467
0.087309837 0.06353604 0.21281548
0.084996 0.064534888 0.21235046
0.082652569 0.065530621 0.21239471
0.080857769 0.065749012 0.21244103
0.19172502 0.011148727 0.21096914
0.19024314 0.012737148 0.21158694
0.18874767 0.013927409 0.2117845
0.085703522 0.062354393 0.21370049
0.083913013 0.062173292 0.21309593
0.081786379 0.063144013 0.21242492
0.080486439 0.064880461 0.21245344
0.19212943 0.007977223 0.21104789
0.1911926 0.0088234041 0.21152338
0.082239427 0.060478829 0.21396746
0.080496997 0.060806736 0.21323363
0.077343524 0.062950596 0.21254165
0.075873323 0.062732011 0.21258077
0.07401754 0.063007303 0.21262841
0.19386458 0.0042621144 0.2106808
0.19229618 0.0052733296 0.21119632
0.19088224 0.0067542507 0.21175124
0.080158986 0.059308976 0.21362275
0.074443713 0.060804203 0.21262412
0.072739013 0.061248787 0.21266736
0.19320515 0.0019974061 0.21105817
0.19159323 0.0029200767 0.2116715
0.074487448 0.056878686 0.21463607
0.073309243 0.058281757 0.21300846
0.071230948 0.059411719 0.21271248
0.069496922 0.059099026 0.21275884
0.1941064 -0.0016308646 0.210693
0.19228631 -0.00034522638 0.21122271
0.19071141 0.0004303297 0.21177557
0.07415852 0.05629947 0.21464649
0.072259992 0.056444369 0.21422771
0.070163518 0.05706016 0.21326405
0.068296373 0.057754524 0.2127945
0.19457141 -0.0053663957 0.21069255
0.19354025 -0.0039065946 0.2108047
0.19119263 -0.0026944075 0.21110171
0.19002852 -0.0012780535 0.21179879
0.07083109 0.054986168 0.21473758
0.068870902 0.054966822 0.21424226
0.066894263 0.05563581 0.2129361
0.19415389 -0.0073161935 0.21164323
0.19269064 -0.0060918732 0.2117442
0.19090083 -0.0045168484 0.21178617
0.067450687 0.052730482 0.21450423
0.065522499 0.053561717 0.21310103
0.063652925 0.054147791 0.21292719
0.19466563 -0.011094918 0.21120824
0.19368556 -0.0096309045 0.21171625
0.19218117 -0.0084603392 0.21176508
0.066257924 0.051179379 0.21472616
0.064378396 0.051262502 0.21403718
0.062142063 0.052034885 0.21357349
0.060215943 0.05215688 0.21402359
0.19407398 -0.012823194 0.21087904
0.19276665 -0.011980564 0.21163757
0.063105375 0.048995018 0.214601
0.060937561 0.049853709 0.21339437
0.059891406 0.05146696 0.21403423
0.19362053 -0.01549661 0.21106677
0.19182312 -0.0144554 0.21179311
0.061869323 0.046855345 0.21470304
0.059740346 0.047598109 0.21365789
0.057689346 0.048141275 0.21310192
0.19387399 -0.019027039 0.21075368
0.19277337 -0.017829496 0.21088989
0.19096705 -0.016794309 0.21182299
0.06051736 0.044821508 0.21503909
0.058787968 0.045272961 0.21437468
0.056499664 0.046245661 0.21396072
0.19312936 -0.020781625 0.211779
0.19175416 -0.020053523 0.2118125
0.19058362 -0.018818377 0.21183938
0.059522428 0.043426495 0.21506947
0.057576854 0.042971231 0.21460564
0.055313718 0.044009686 0.21401061
0.053227961 0.044416003 0.21423058
0.19244865 -0.02344585 0.21180512
0.19089434 -0.022628166 0.21184318
0.056392141 0.040685818 0.21477138
0.054138888 0.041650381 0.21372174
0.052460104 0.042590942 0.21363547
0.19139937 -0.025762437 0.21183977
0.19006592 -0.024930982 0.2118721
0.055020157 0.038541351 0.21510859
0.053079095 0.039345231 0.21410735
0.051096506 0.040105656 0.2135974
0.19035116 -0.028173959 0.21187484
0.1897846 -0.02670902 0.21188505
0.053867947 0.036589406 0.2151618
0.052018709 0.037002902 0.21441051
0.049604498 0.038070802 0.21434525
0.04786665 0.038082894 0.21439058
0.19073351 -0.032011949 0.2118769
0.18956563 -0.030701606 0.21190308
0.18782739 -0.030869637 0.21194927
0.052502885 0.033914786 0.21528283
0.050859548 0.034642018 0.21474546
0.048779167 0.035793889 0.21437396
0.18998162 -0.033826314 0.21190225
0.1884962 -0.033047937 0.21193844
0.18743595 -0.031701759 0.21196212
0.05110123 0.031727977 0.21532634
0.049614705 0.032348171 0.215038
0.04759904 0.033266991 0.21441275
0.18901518 -0.03612975 0.21193475
0.18736097 -0.035332978 0.21197529
0.050176568 0.030039258 0.2153558
0.048493437 0.029999666 0.21509977
0.046278335 0.031052139 0.21445422
0.044747397 0.031611219 0.21449241
0.18800366 -0.038663331 0.21196915
0.18643427 -0.037757441 0.21200715
0.04877267 0.026777901 0.21540274
0.047549173 0.027572908 0.21478997
0.04534363 0.028703991 0.21441023
0.043842278 0.029527936 0.21452263
0.18687135 -0.040708471 0.21200517
0.18544625 -0.040251527 0.21204081
0.047824435 0.024781957 0.21543379
0.046473809 0.025255151 0.21473613
0.0443599 0.025994033 0.21377747
0.1856821 -0.043350201 0.21204455
0.18405184 -0.042552866 0.21208449
0.18234721 -0.042519361 0.2121291
0.046523139 0.022010965 0.21547651
0.045238584 0.022810396 0.21489556
0.043170482 0.02377555 0.21404557
0.18490811 -0.044515558 0.21206844
0.18303108 -0.044754263 0.21211809
0.18208624 -0.043074109 0.21213767
0.045537725 0.019635648 0.21542969
0.044216335 0.020469803 0.21465364
0.042053908 0.021564642 0.21370357
0.18342388 -0.047430702 0.21211639
0.18192156 -0.047239196 0.21215488
0.04464528 0.01704083 0.21540785
0.042988032 0.018043825 0.21450227
0.041293308 0.019216977 0.21375464
0.18050961 -0.049435608 0.2121987
0.17886731 -0.049351145 0.21224152
0.044004433 0.014690004 0.21556517
0.041943043 0.015759513 0.21457505
0.040566489 0.016440989 0.21364899
0.17933312 -0.051845279 0.21223706
0.17782277 -0.051129363 0.2122744
0.044712894 0.011944493 0.21555544
0.043038324 0.01235678 0.21547423
0.040801056 0.013477832 0.21453661
0.039405428 0.013995664 0.21374586
0.1780605 -0.053945228 0.21227698
0.17644624 -0.053417835 0.2123175
0.043937862 0.0080743227 0.21558787
0.042338766 0.0099724215 0.21534775
0.039562039 0.011014439 0.21466413
0.038983323 0.012763714 0.21370193
0.17670286 -0.056206398 0.21231963
0.17505655 -0.055537775 0.2123604
0.17333245 -0.055418745 0.21240525
0.043343253 0.0065699923 0.21553102
0.041184656 0.0078113102 0.21474992
0.038635753 0.0087815411 0.21490724
0.17573555 -0.057744395 0.21234974
0.17385137 -0.057778448 0.21239893
0.1724142 -0.057154786 0.21243469
0.043440834 0.0049202829 0.21561076
0.037738413 0.0071983826 0.21575266
0.17271212 -0.059991915 0.21243575
0.17142744 -0.059180435 0.21246685
0.16696651 -0.064415358 0.2125999
0.16641194 -0.06415426 0.21261357
0.040722668 -0.0045359842 0.2147112
0.038696975 -0.0035327335 0.214761
0.16628145 -0.064431638 0.21261786
0.044126302 -0.0094440505 0.21363728
0.041700073 -0.0077225626 0.21469563
0.040095761 -0.0062808758 0.21473309
0.037816696 -0.0053498717 0.21470636
0.0455698 -0.012180777 0.21428286
0.043593936 -0.010983387 0.21409018
0.041299716 -0.0097856643 0.21469793
0.038956232 -0.0086861458 0.21465668
0.036881901 -0.0075606247 0.2140049
0.035383455 -0.0070047919 0.21385813
0.046523288 -0.014803834 0.21521702
0.045076735 -0.014392883 0.21498226
0.042709678 -0.013252305 0.2147992
0.040191472 -0.012135657 0.21469015
0.038100883 -0.011075484 0.214169
0.036314771 -0.010076852 0.21384348
0.034479372 -0.008926698 0.2138878
0.15808697 -0.071099222 0.21285298
0.15646726 -0.070438333 0.21289325
0.1543947 -0.069265738 0.21294372
0.045464031 -0.016699251 0.21562579
0.043737076 -0.016531512 0.21526755
0.041506693 -0.015553001 0.21472535
0.039087087 -0.014484568 0.21435785
0.037131958 -0.013265662 0.21383207
0.035997137 -0.011877023 0.21385738
0.1573704 -0.072478488 0.21287604
0.15570393 -0.072156981 0.21291843
0.15339684 -0.071110651 0.21297543
0.044113025 -0.020411199 0.21567276
0.042687088 -0.019018406 0.21529287
0.040528156 -0.017935708 0.21420637
0.038264878 -0.016831415 0.21382876
0.037143558 -0.015379135 0.21383843
0.15436862 -0.074150339 0.21295971
0.15223788 -0.07340499 0.21301287
0.15048143 -0.072970361 0.21305765
0.043827102 -0.022580504 0.21555527
0.041727811 -0.021390015 0.21458951
0.039464884 -0.020254698 0.21386993
0.037092678 -0.019238327 0.21385178
0.15297194 -0.075444601 0.21300033
0.15102109 -0.07544107 0.21282306
0.14881483 -0.074772596 0.21310674
0.14674968 -0.074423186 0.21315975
0.046336986 -0.027443754 0.21563673
0.044849113 -0.026276415 0.21557193
0.043009929 -0.024966298 0.21493061
0.040694155 -0.023862142 0.2140069
0.038486898 -0.022703037 0.21382631
0.036462381 -0.020770799 0.21387315
0.14956297 -0.077034123 0.21309443
0.14758341 -0.076844305 0.21278821
0.1455099 -0.075920165 0.21302743
0.14323722 -0.075912803 0.21325624
0.047785267 -0.031102238 0.21561037
0.046227068 -0.029556539 0.21555649
0.044140406 -0.028286703 0.21477738
0.04194133 -0.027135605 0.2139525
0.039695702 -0.026161656 0.21380556
0.038516186 -0.02457715 0.21383144
0.14599769 -0.078230068 0.212191
0.14413857 -0.078076325 0.21241109
0.1419237 -0.077306151 0.21309187
0.13976133 -0.076800779 0.21334988
0.047309361 -0.03282477 0.21541376
0.045448847 -0.031800848 0.2145319
0.04310146 -0.030683802 0.21389736
0.040671729 -0.029616352 0.21379083
0.038980171 -0.028810896 0.21383268
0.14281622 -0.079728544 0.2122789
0.14079836 -0.079359055 0.21241805
0.13837738 -0.078395292 0.21294764
0.13637772 -0.078058064 0.21344227
0.050222032 -0.038025249 0.21556842
0.048625596 -0.036707997 0.2155482
0.046707772 -0.03519148 0.21507816
0.044485956 -0.034166716 0.2139814
0.042420737 -0.032924898 0.21375567
0.040112622 -0.031208774 0.21381053
0.13933422 -0.081025615 0.212374
0.13726737 -0.080688648 0.21244261
0.13495581 -0.07980033 0.21273467
0.1327578 -0.079220086 0.21322125
0.052030161 -0.041374665 0.21549594
0.050125673 -0.040041599 0.21520351
0.047927432 -0.038804725 0.21483476
0.045605429 -0.037737414 0.21445778
0.043325365 -0.036494587 0.21435979
0.042026117 -0.035200588 0.21377309
0.13582529 -0.082162999 0.21246924
0.13381353 -0.08201389 0.21252142
0.13150638 -0.080945455 0.21265192
0.12917335 -0.080247901 0.21345982
0.12669289 -0.079617508 0.21370031
0.055176765 -0.046032861 0.21546407
0.053596918 -0.044588696 0.21537563
0.051565461 -0.043270603 0.21484357
0.049249917 -0.042164024 0.21413012
0.047025904 -0.040999603 0.21376058
0.04458975 -0.039743789 0.21372034
0.042671822 -0.03836624 0.2146998
0.13236493 -0.08341717 0.21256363
0.13041523 -0.082975298 0.21261325
0.12805636 -0.082211822 0.2128004
0.12565058 -0.081202775 0.2132142
0.12352001 -0.080599748 0.21358626
0.12127968 -0.080174699 0.21384354
0.058882218 -0.050516028 0.21538129
0.057229854 -0.049325448 0.21542075
0.055111293 -0.047999211 0.21509826
0.052766033 -0.046786666 0.21442005
0.050472401 -0.045571905 0.21374211
0.048082978 -0.044507869 0.21364391
0.046647832 -0.043419495 0.21367811
0.12880704 -0.084564008 0.21266024
0.12687263 -0.084199406 0.21266621
0.12452131 -0.083356299 0.2125462
0.12213669 -0.082196459 0.21304347
0.11990115 -0.081297852 0.21352036
0.11753561 -0.080521405 0.21390846
0.11500806 -0.079854317 0.21400645
0.11317034 -0.079293169 0.21405274
0.064782143 -0.056480043 0.21524583
0.063048482 -0.055639662 0.21528849
0.060501747 -0.054161813 0.21522538
0.058586214 -0.052421335 0.21495035
0.056309864 -0.051287636 0.21472621
0.054006945 -0.050249919 0.21398246
0.051690802 -0.049153388 0.21361826
0.048837639 -0.04800503 0.21363531
0.04719089 -0.046554703 0.21367379
0.045916811 -0.045667931 0.21370426
0.12261466 -0.08556702 0.21282528
0.12103533 -0.08468046 0.21286379
0.11869031 -0.083576441 0.21292162
0.11632786 -0.082433693 0.21319775
0.11400869 -0.081549443 0.21372059
0.11171598 -0.080446608 0.213946
0.10931724 -0.079727583 0.21415481
0.10732716 -0.079162337 0.21420504
0.068235546 -0.060864709 0.21516933
0.066599555 -0.059513692 0.21520784
0.06452851 -0.058247577 0.21505263
0.062302358 -0.057081454 0.21472535
0.059992533 -0.055885457 0.21420355
0.057550743 -0.05467239 0.21378015
0.055558749 -0.053289291 0.21370839
0.053148121 -0.052061066 0.21353537
0.050859258 -0.05091992 0.21359161
0.048615396 -0.049946215 0.2136472
0.12193967 -0.087016359 0.21284741
0.12036667 -0.086249381 0.21288615
0.11770463 -0.08544489 0.21343616
0.11538142 -0.084410392 0.21306075
0.11284528 -0.083549678 0.2125946
0.11052812 -0.082664199 0.21287
0.10832329 -0.081426635 0.21336558
0.10593525 -0.080308601 0.21382312
0.10341236 -0.079358712 0.21409215
0.10107661 -0.078803785 0.21428388
0.098585092 -0.077863552 0.21442947
0.096090086 -0.076812804 0.21449138
0.09363696 -0.075679176 0.21455193
0.091942459 -0.075002424 0.2145941
0.081608169 -0.070306517 0.21484946
0.079482265 -0.069305651 0.21490188
0.076963335 -0.067974538 0.21496354
0.074904606 -0.066368006 0.2150123
0.072734624 -0.065041475 0.21498357
0.070480078 -0.063819975 0.21459533
0.068208188 -0.062635347 0.21482305
0.06586197 -0.061481107 0.21463078
0.063567355 -0.060496625 0.21396261
0.061251938 -0.059342783 0.21349636
0.059146978 -0.058212627 0.2133978
0.057189342 -0.056508493 0.21344364
0.11126208 -0.085105821 0.21212019
0.10951626 -0.084725857 0.21218383
0.10771212 -0.08351697 0.21264935
0.10475831 -0.082747787 0.21328317
0.10236186 -0.081660613 0.21327907
0.10003061 -0.080483295 0.21290599
0.09777008 -0.079402275 0.21350011
0.095339872 -0.078379199 0.2137464
0.0929657 -0.077382825 0.2141628
0.090638347 -0.076214813 0.21422273
0.08826714 -0.075141296 0.21426179
0.085939169 -0.073977567 0.21437541
0.083490387 -0.072988488 0.21422949
0.081223182 -0.071752526 0.21448731
0.07886225 -0.070694387 0.21445167
0.076586321 -0.06948889 0.21443665
0.074143663 -0.068519518 0.21467724
0.071783595 -0.067236215 0.21415327
0.069772497 -0.065736651 0.2134105
0.067088887 -0.064883694 0.21365038
0.064857036 -0.063823909 0.21367885
0.063319266 -0.062589213 0.21330252
0.058763631 -0.05993256 0.21341328
0.10390013 -0.084158823 0.21330997
0.10152304 -0.083357483 0.21340412
0.099157691 -0.082206376 0.2124275
0.097163476 -0.081133299 0.21268463
0.094557434 -0.079939365 0.21257092
0.091990203 -0.078953341 0.21279617
0.089784734 -0.078070566 0.21273354
0.087356582 -0.07687927 0.21296117
0.08487384 -0.075913303 0.21302725
0.082486898 -0.075108051 0.21312183
0.08017607 -0.074001469 0.21316032
0.077883184 -0.072871849 0.21325651
0.075553492 -0.071686044 0.21333089
0.073177308 -0.070600331 0.21339148
0.070857733 -0.069392152 0.21320792
0.065886781 -0.066450186 0.21324757
0.064480238 -0.065681651 0.2132819
0.081558272 -0.076521836 0.21286958
0.079422198 -0.07552737 0.21292229
0.07775718 -0.074701548 0.21296324
0.15996554 0.053731371 0.21341212
0.15781395 0.054837201 0.21346487
0.15593451 0.055884562 0.21351068
0.15311259 0.057448044 0.21357952
0.1512816 0.05885791 0.21362296
0.14908293 0.059994854 0.21367684
0.14658368 0.060761176 0.21373977
0.144134 0.062080644 0.21383475
0.14193861 0.063311979 0.21424466
0.13952814 0.063867696 0.21404962
0.13708748 0.064857557 0.2139751
0.13469681 0.065627731 0.21403523
0.16806704 0.047193054 0.21322089
0.1662145 0.048320606 0.21326576
0.16420135 0.049546797 0.2133145
0.16188556 0.051023588 0.21347953
0.15975967 0.052299544 0.21382478
0.15736184 0.053324081 0.21395463
0.15501305 0.054513168 0.21387693
0.152665 0.055521928 0.21428676
0.15016897 0.056459121 0.21467786
0.14801311 0.057877138 0.21450405
0.14566773 0.058946393 0.21468551
0.14331938 0.060124435 0.21474183
0.14099775 0.061113976 0.21488515
0.13860317 0.062327296 0.2147121
0.13621674 0.063368656 0.21449593
0.13382065 0.064462997 0.21446438
0.13146663 0.065263197 0.2142963
0.12921412 0.065928921 0.21417752
0.12657882 0.066988572 0.21424307
0.12448337 0.067797095 0.21429536
0.17385423 0.041403763 0.21308783
0.17218204 0.042191025 0.21312906
0.16967119 0.04387803 0.21318933
0.16791964 0.045572385 0.21344732
0.16573751 0.046733093 0.21383145
0.16345334 0.047838081 0.21435207
0.16097561 0.04885124 0.21473485
0.15866703 0.049986526 0.21489076
0.15636417 0.051188052 0.21508804
0.15427749 0.052547269 0.21535353
0.15185452 0.053715169 0.21558474
0.14940566 0.054812972 0.21548523
0.14721026 0.055809479 0.2156415
0.14462943 0.056929879 0.21553878
0.142289 0.057840504 0.21539114
0.13992965 0.058982179 0.21545596
0.13754959 0.06005647 0.21561378
0.13524072 0.061168961 0.215855
0.13283339 0.062247999 0.21570224
0.13037424 0.06334769 0.21542166
0.12834951 0.064600945 0.21490306
0.12580425 0.06554196 0.21476813
0.12344672 0.066648759 0.21443212
0.12138495 0.067080244 0.21437854
0.17574605 0.038421307 0.2130477
0.17393756 0.03979763 0.21325974
0.17164177 0.040875621 0.21364754
0.16926508 0.042014953 0.21403952
0.16698886 0.043192416 0.21460734
0.16463795 0.044334881 0.21509218
0.16276097 0.045842465 0.21536444
0.16030136 0.047432836 0.21542382
0.15813223 0.048314113 0.21547769
0.15587878 0.049631391 0.21553253
0.1363097 0.059003145 0.21601455
0.13363531 0.060262226 0.21608049
0.13167299 0.060842097 0.21612997
0.12936504 0.061387129 0.21618848
0.12705316 0.062170327 0.21617287
0.12484997 0.063212372 0.21597148
0.12350357 0.064473167 0.21533175
0.1200202 0.066016383 0.21441758
0.11869638 0.066350162 0.21445115
0.17893773 0.033756692 0.21297899
0.17727274 0.035117924 0.21303903
0.17520541 0.036396284 0.21343318
0.17281038 0.037511848 0.21447656
0.17061754 0.038571268 0.21491867
0.16847408 0.040016636 0.2151636
0.16627146 0.041381262 0.21528675
0.16485453 0.042382751 0.21532066
0.12568675 0.060908683 0.21628621
0.12399766 0.061703891 0.21632788
0.12050194 0.062386572 0.2164171
0.11900993 0.062894098 0.21645445
0.11704265 0.063000485 0.21650559
0.18255335 0.029060032 0.21289922
0.18085817 0.030329205 0.21312478
0.17888051 0.031838723 0.21342331
0.17662099 0.033013809 0.21419701
0.17411166 0.034183126 0.21501344
0.1721842 0.035624828 0.21515024
0.17015742 0.036948923 0.21519916
0.1099138 0.06341581 0.21669063
0.10872564 0.064021058 0.21671979
0.18399334 0.025773644 0.21287188
0.18234348 0.027204894 0.2130105
0.18014568 0.028297044 0.21414568
0.17780147 0.029484376 0.21490993
0.1758541 0.031044163 0.21506868
0.17427716 0.032443229 0.21510559
0.10947003 0.062764846 0.21670426
0.10788812 0.063049383 0.21674466
0.099429846 0.065362185 0.2149578
0.098037399 0.065974079 0.21499231
0.18491682 0.022393012 0.21285836
0.18361007 0.023845386 0.21294512
0.18147269 0.024971951 0.21396807
0.1791383 0.026007298 0.21495694
0.17760491 0.027224794 0.21503504
0.10273202 0.061671905 0.21688379
0.1011733 0.062075429 0.216855
0.098841995 0.063791126 0.2154212
0.096864522 0.064491436 0.21509656
0.094732717 0.064436808 0.21508351
0.18596996 0.018673576 0.21284254
0.18462288 0.020291325 0.21305732
0.18256727 0.02148944 0.2137841
0.18049301 0.022637319 0.21471225
0.17929551 0.02397527 0.21500105
0.10018868 0.060874298 0.21695282
0.097993776 0.061410449 0.21640831
0.095618166 0.062463634 0.21593601
0.093251891 0.063242108 0.21557392
0.091302335 0.063356012 0.21517657
0.18701106 0.015459239 0.21282543
0.18601395 0.016626472 0.21320507
0.18382564 0.018037407 0.21423016
0.18169329 0.019224158 0.21483839
0.18038195 0.020750299 0.21498278
0.096624941 0.059800386 0.21704926
0.094479784 0.060258329 0.21691459
0.092134088 0.061147682 0.21635054
0.089772008 0.062214121 0.2157332
0.087853506 0.062571906 0.21539418
0.18927985 0.011991851 0.21298638
0.18733862 0.012950389 0.21367919
0.1851639 0.014575412 0.21444039
0.18302149 0.015710678 0.21491309
0.18154779 0.01706754 0.21496387
0.092932209 0.059016503 0.21714829
0.090902954 0.059156008 0.21702617
0.088602081 0.059957504 0.21652269
0.086170509 0.060995199 0.21585324
0.084305473 0.061315216 0.21536583
0.18996215 0.0088674445 0.21276897
0.18857381 0.0099547543 0.21308404
0.18634832 0.011152506 0.2143255
0.18442143 0.012296513 0.21490364
0.18317702 0.013778111 0.21493161
0.08938852 0.057818487 0.21724467
0.087457359 0.057944208 0.21710712
0.085133933 0.058677159 0.21643297
0.082937591 0.059580944 0.21569288
0.080925129 0.059387915 0.21546027
0.18958971 0.0065077716 0.21278611
0.18745318 0.0079372078 0.21381506
0.18550433 0.0089305341 0.21486804
0.1842314 0.010415357 0.21491461
0.08591906 0.055884872 0.21734139
0.084114239 0.056428432 0.21710107
0.081809826 0.057404652 0.21652174
0.079825081 0.058101512 0.216015
0.19040582 0.0029463344 0.21277598
0.18883431 0.0041293944 0.21326225
0.18657187 0.0053142053 0.21448262
0.18531892 0.0066357092 0.21489805
0.082918897 0.054722857 0.2174235
0.080661222 0.055226117 0.21735258
0.078334503 0.056197207 0.21644261
0.07637012 0.056895837 0.21567224
0.18963091 0.00095049664 0.21302898
0.18776406 0.0018495037 0.21380417
0.18555889 0.0029363823 0.21466888
0.079302952 0.053137526 0.21752289
0.077095546 0.053996105 0.21721075
0.074745223 0.054970998 0.21634491
0.072566032 0.055343725 0.21569142
0.18986413 -0.0030804069 0.21280909
0.18877578 -0.0016723815 0.21362512
0.18673959 -0.00048979186 0.21462224
0.18516737 0.0010408214 0.21491958
0.077979222 0.051839132 0.21756166
0.076007269 0.051842365 0.2175964
0.073753804 0.052431207 0.21680182
0.071392268 0.053716969 0.21572721
0.069670424 0.054036848 0.21577123
0.19143227 -0.0064727557 0.21277873
0.18999696 -0.0053539723 0.21302433
0.18779035 -0.0040251594 0.2146059
0.18649745 -0.0024608914 0.21489586
0.073929772 0.049034331 0.21767634
0.072540596 0.05037393 0.21736257
0.070321247 0.05132791 0.21617673
0.06848608 0.052080061 0.2158083
0.19113728 -0.0085440446 0.21281619
0.18910581 -0.007397749 0.21379369
0.18719041 -0.0065042833 0.21471786
0.073265411 0.047828805 0.21769749
0.071481638 0.047974367 0.21745956
0.069168024 0.049000476 0.2168382
0.066871852 0.049990553 0.21599229
0.064913273 0.050127033 0.21590789
0.19150925 -0.012046406 0.21279426
0.19033903 -0.010925421 0.21332774
0.18796185 -0.0097731659 0.21418414
0.18637274 -0.0087593999 0.21484739
0.069869161 0.046093769 0.21779172
0.068130434 0.04663289 0.21732368
0.065685645 0.04774344 0.21618412
0.063909672 0.048490468 0.21593919
0.19067594 -0.01401884 0.2128222
0.18932676 -0.013239949 0.21331674
0.18698464 -0.012113927 0.2148843
0.18584931 -0.010754846 0.21493882
0.068698637 0.043961193 0.21782902
0.066897452 0.044389907 0.2175025
0.064440213 0.045453381 0.21657272
0.062645845 0.046088371 0.21600835
0.18972751 -0.016611544 0.21294892
0.18814027 -0.015880192 0.21395722
0.18618748 -0.014573099 0.21494187
0.065608755 0.042209979 0.21791513
0.06347546 0.043066829 0.21732686
0.061312404 0.043987866 0.21633308
0.059498798 0.043992776 0.21606866
0.19039947 -0.020486329 0.21284978
0.18912798 -0.01905244 0.21314621
0.18702388 -0.018013449 0.21434246
0.1857284 -0.016996741 0.21496162
0.063889429 0.040046874 0.217967
0.062291447 0.040691834 0.21755657
0.060002476 0.041820526 0.21654491
0.058615491 0.042455625 0.21609655
0.18978903 -0.022166763 0.21287097
0.18818167 -0.021344626 0.21349405
0.18596604 -0.020275682 0.21468428
0.18448302 -0.019611537 0.21500237
0.062796824 0.037936356 0.2180022
0.061233938 0.038443837 0.21759127
0.059047692 0.039444748 0.21639484
0.057405684 0.040076457 0.21613565
0.18889424 -0.02476161 0.2129025
0.18709844 -0.023727715 0.21364656
0.18520606 -0.022437204 0.21499224
0.18414399 -0.020958807 0.21501544
0.060048994 0.036244318 0.2178728
0.057885349 0.037036762 0.21665917
0.056013081 0.037888993 0.21617891
0.18967469 -0.028087813 0.21289259
0.18835083 -0.027242964 0.2129245
0.18594381 -0.026096504 0.21355358
0.18418549 -0.02533487 0.21493711
0.058738042 0.033867974 0.21812095
0.056772009 0.034714106 0.21710694
0.054690957 0.035647921 0.2162205
0.18723053 -0.029553914 0.21296105
0.1849476 -0.028469436 0.21401776
0.18354803 -0.02730405 0.21505098
0.057421267 0.031650204 0.21816236
0.055647504 0.032529563 0.21745576
0.053472266 0.033545658 0.21629535
0.18609676 -0.031995025 0.21311434
0.18385026 -0.030885352 0.21458116
0.056355599 0.029089 0.21819824
0.054504428 0.030020617 0.21789484
0.052185163 0.030995607 0.21646318
0.05054266 0.03146686 0.21634211
0.18635678 -0.03514101 0.21300147
0.18506256 -0.034349345 0.21313283
0.18281016 -0.033173341 0.21454562
0.055425979 0.026799522 0.21822971
0.053448014 0.027782649 0.21768786
0.05102931 0.028775442 0.2163735
0.049387716 0.029270194 0.21637915
0.18516625 -0.037943188 0.21304139
0.18392944 -0.036713131 0.21324797
0.18189439 -0.035635024 0.21468268
0.054048289 0.025040392 0.21827137
0.052279919 0.025423247 0.21792333
0.049996123 0.026381198 0.21679783
0.048794083 0.027749762 0.21639948
0.18439785 -0.039667133 0.21306686
0.1828486 -0.039019719 0.21368456
0.18054198 -0.03784027 0.21508141
0.17897792 -0.0377886 0.21520334
0.05264993 0.021909403 0.21831775
0.051184274 0.023022402 0.21806173
0.048762105 0.024059772 0.21710734
0.047089227 0.024125587 0.21645543
0.18360823 -0.041225027 0.21309243
0.18177161 -0.041281164 0.21347407
0.17960544 -0.040299129 0.21497594
0.051998377 0.019756811 0.21834143
0.050138429 0.020675862 0.21792462
0.047649249 0.021854175 0.21701802
0.046630226 0.023149852 0.21647048
0.18185577 -0.044915963 0.21314985
0.18062779 -0.043697424 0.21337259
0.17836308 -0.042635884 0.21474081
0.17649001 -0.042894635 0.21528441
0.052280009 0.015725967 0.21834682
0.051004939 0.017133452 0.21822889
0.049136445 0.018352017 0.21750915
0.046704009 0.019441333 0.21704708
0.1810853 -0.04645044 0.21317481
0.17957871 -0.046070356 0.21340287
0.17719203 -0.044931147 0.21445282
0.17555444 -0.044274312 0.21531318
0.051717013 0.014041897 0.2183668
0.050020233 0.01486793 0.21823962
0.047923878 0.015915576 0.21748927
0.045867831 0.016950024 0.21686067
0.17829368 -0.048225351 0.21339621
0.17614836 -0.047301892 0.2146447
0.17421167 -0.046497196 0.2153552
0.050796367 0.012377154 0.21839613
0.048992492 0.012550481 0.21797831
0.046720438 0.013611322 0.21715355
0.04513824 0.01442026 0.21662022
0.17681086 -0.050503641 0.2132992
0.17495582 -0.049664777 0.2145507
0.17299873 -0.048706196 0.21539381
0.048918642 0.0088240542 0.21845636
0.047900163 0.010081846 0.21783748
0.045728423 0.011185883 0.21672218
0.044165693 0.011780867 0.21657059
0.17550945 -0.052724387 0.21334018
0.17381763 -0.051933747 0.21403089
0.17157984 -0.051192187 0.21521139
0.048264571 0.0070682052 0.21847899
0.046878412 0.0078057456 0.21738876
0.04463879 0.0089593232 0.21656707
0.043115556 0.0099316631 0.21660385
0.17427506 -0.054311235 0.21337748
0.1726439 -0.054121695 0.21377581
0.17047259 -0.053260624 0.21497406
0.16903901 -0.052906413 0.21551062
0.047425076 0.0055028447 0.21850583
0.045561776 0.0056331367 0.21780117
0.044278182 0.0062094196 0.21658514
0.1713652 -0.056516796 0.21346042
0.16938703 -0.055542316 0.21437791
0.16732752 -0.054892819 0.21525708
0.04812403 0.00031243777 0.21850386
0.047660358 0.00030141696 0.21851602
0.045248091 0.0037015299 0.21856841
0.17025132 -0.058980659 0.21349727
0.16824245 -0.057938326 0.21427189
0.16602829 -0.056845054 0.21484765
0.17412095 -0.063736603 0.21520825
0.17160881 -0.062533535 0.21391763
0.16945246 -0.061355408 0.21391968
0.16702244 -0.060309444 0.21404323
0.16476364 -0.059318375 0.21467452
0.16260354 -0.058521684 0.21548353
0.17284958 -0.064695217 0.21444771
0.17100331 -0.06411323 0.21449417
0.16843045 -0.063427888 0.2144213
0.16601276 -0.062438805 0.21379142
0.163721 -0.061392136 0.21472773
0.16135022 -0.060385589 0.21517645
0.15978466 -0.060115721 0.21577516
0.16575873 -0.064093009 0.2136308
0.16204414 -0.063808478 0.2157276
0.16010171 -0.062728822 0.21577495
0.15866649 -0.062065534 0.21581051
0.16091537 -0.065797091 0.21576338
0.15904829 -0.065072358 0.21580984
0.15694939 -0.064457119 0.21586281
0.048140995 -0.014027361 0.21854846
0.1597698 -0.066925459 0.21579692
0.15792388 -0.067194626 0.21584591
0.15580758 -0.066167735 0.21589798
0.15386799 -0.065924056 0.21594799
0.047735989 -0.01538931 0.21849179
0.1604214 -0.072363481 0.21379627
0.15935424 -0.07185439 0.21382254
0.15339789 -0.068659574 0.21396823
0.15213028 -0.067790277 0.21533236
0.15028125 -0.067847073 0.21604782
0.045531638 -0.017780174 0.21699151
0.044426851 -0.017526958 0.21665582
0.15962565 -0.073421881 0.21382041
0.15858667 -0.073253937 0.213847
0.15259299 -0.070153527 0.21399395
0.15098268 -0.069865949 0.21456237
0.14904168 -0.069197178 0.21593434
0.051377818 -0.023410797 0.21849334
0.049822576 -0.022723394 0.2184841
0.047387734 -0.02171565 0.21796161
0.045169324 -0.020290257 0.21687958
0.043869622 -0.018853731 0.21667455
0.14969561 -0.072044075 0.21435514
0.1475715 -0.071278669 0.21559179
0.1452904 -0.070659511 0.21618702
0.14320527 -0.070112303 0.21623991
0.050747953 -0.025885681 0.21842065
0.048854396 -0.024627207 0.21788158
0.046219379 -0.02352806 0.21732476
0.044883713 -0.022344967 0.216699
0.14848807 -0.073669329 0.21411228
0.14645606 -0.073214151 0.2145641
0.14425562 -0.072535507 0.21530928
0.14191444 -0.071536951 0.2160667
0.14000976 -0.071233682 0.21632694
0.051712774 -0.029582106 0.21850398
0.0501213 -0.028239898 0.21793897
0.047758915 -0.027077649 0.2170931
0.045686319 -0.025659978 0.21677576
0.044385634 -0.024318039 0.21667826
0.14479457 -0.074790843 0.21421234
0.14296806 -0.074654497 0.21440464
0.14067291 -0.073774226 0.21539594
0.13827419 -0.073001087 0.21632509
0.13627486 -0.072565526 0.21642876
0.057083718 -0.035366904 0.21838175
0.056009199 -0.034332752 0.21840648
0.053035416 -0.033282049 0.2184497
0.051260218 -0.031708721 0.21793465
0.04898835 -0.030506521 0.21707755
0.047163792 -0.029113768 0.21662067
0.14157695 -0.076058589 0.21430045
0.13928053 -0.075738333 0.21463613
0.13728273 -0.074994184 0.2153811
0.13480161 -0.074046381 0.21628031
0.13266355 -0.073683925 0.21652663
0.056768719 -0.037333079 0.21839608
0.054864783 -0.036282845 0.21844248
0.052469119 -0.035147987 0.21805279
0.050260074 -0.034085788 0.21707886
0.048416331 -0.03300909 0.21660016
0.13786495 -0.076954097 0.21440028
0.13592492 -0.077024415 0.21448754
0.13385475 -0.07628426 0.21506739
0.13154869 -0.075138591 0.21625754
0.12917687 -0.074789606 0.21662128
0.12737973 -0.074377991 0.21666692
0.057692446 -0.041053712 0.21838371
0.056079883 -0.03979772 0.21795875
0.053760435 -0.038497586 0.21757823
0.051485799 -0.037441898 0.21696113
0.049480788 -0.036012355 0.21660452
0.04808002 -0.03479743 0.21661462
0.13454522 -0.0783424 0.21449141
0.13261303 -0.078045554 0.21464908
0.13032705 -0.077410944 0.21549915
0.12801017 -0.076390833 0.2159477
0.12563759 -0.075502522 0.21647583
0.12340548 -0.07515116 0.21677326
0.06720008 -0.04805252 0.21744637
0.058963601 -0.044927876 0.21821976
0.057320062 -0.043192722 0.21792808
0.05502563 -0.042029746 0.21717177
0.052987266 -0.040804964 0.21672063
0.051205918 -0.0394473 0.21654749
0.12888281 -0.078945599 0.21464127
0.12692568 -0.078362927 0.21485431
0.12451523 -0.077554382 0.21544655
0.12206843 -0.076549195 0.21646519
0.11978721 -0.07593599 0.21684578
0.11766212 -0.075421058 0.21692422
0.065843977 -0.049772706 0.21778616
0.06337674 -0.049863841 0.21826284
0.060509253 -0.048103698 0.21797489
0.058678016 -0.046607837 0.21737505
0.056287263 -0.045338824 0.21672601
0.054465368 -0.043907877 0.21651079
0.053091306 -0.0427186 0.21650851
0.1253401 -0.079457074 0.21473551
0.12331497 -0.079323612 0.21489438
0.12102412 -0.0788332 0.21535905
0.11874102 -0.077784434 0.21578941
0.11635078 -0.076757133 0.216435
0.11385487 -0.07579197 0.21675706
0.11171 -0.075092457 0.21704535
0.10957004 -0.074592389 0.2171331
0.10606214 -0.072749786 0.21721901
0.10520656 -0.072538093 0.21724069
0.087611906 -0.064254634 0.21767455
0.073676936 -0.057694137 0.21801817
0.067765124 -0.054910898 0.21816395
0.066245332 -0.053859055 0.21810944
0.064390048 -0.052517802 0.21793282
0.062259108 -0.051200312 0.21735652
0.06000841 -0.049889013 0.21670589
0.057865392 -0.048468936 0.21644434
0.056131862 -0.047110017 0.21644281
0.11982242 -0.080021381 0.21488151
0.11763088 -0.079381853 0.21493673
0.11519494 -0.078687891 0.21518163
0.11285874 -0.077922441 0.21563049
0.11062002 -0.076744974 0.21631217
0.10815432 -0.075730361 0.21709023
0.10566691 -0.074609034 0.21723504
0.10346424 -0.073823817 0.21723843
0.10098415 -0.072502844 0.21733634
0.098769531 -0.071755335 0.21740639
0.096067853 -0.070957445 0.21747459
0.094328567 -0.069566578 0.2175156
0.088100493 -0.067236371 0.21767116
0.086969204 -0.065819316 0.21769616
0.084723383 -0.06531357 0.21775332
0.082900763 -0.065132335 0.21780045
0.079264715 -0.063011035 0.21788885
0.077316113 -0.061870951 0.2179361
0.074854188 -0.060559385 0.21792221
0.072799765 -0.059296012 0.21789326
0.070629433 -0.058579851 0.21738605
0.067873895 -0.057045083 0.21692131
0.065883741 -0.055619009 0.21705835
0.063527532 -0.054507084 0.21674359
0.061311286 -0.053388529 0.216345
0.059723794 -0.05217867 0.21636485
0.11167932 -0.079033472 0.2150912
0.10940791 -0.078556955 0.21524715
0.10709366 -0.077789657 0.2159176
0.10471915 -0.077015139 0.21617924
0.10229727 -0.075944319 0.21621466
0.10005429 -0.074683577 0.21649727
0.097651742 -0.073630892 0.2169881
0.095370688 -0.072545722 0.21713142
0.093031198 -0.071649209 0.21741313
0.090394296 -0.070919558 0.21756387
0.088170283 -0.069396377 0.21767604
0.085927755 -0.068125412 0.2176865
0.083540916 -0.067018956 0.21761563
0.081253096 -0.065895252 0.21741907
0.078885451 -0.064670309 0.21731807
0.07644023 -0.063716799 0.21707048
0.073957816 -0.062518209 0.21686105
0.071692012 -0.061495196 0.21674018
0.069515243 -0.060284682 0.21648747
0.06746076 -0.058918644 0.21620132
0.065607809 -0.05736012 0.21622732
0.10548713 -0.078964025 0.21525286
0.10376789 -0.078465536 0.21529619
0.10134147 -0.077649385 0.21540585
0.098995455 -0.076681748 0.21556245
0.096648589 -0.075719744 0.21573091
0.094284445 -0.074609011 0.21582845
0.091901973 -0.073560849 0.21592446
0.089580812 -0.072471097 0.2163263
0.087305069 -0.071657717 0.21607146
0.084765747 -0.070182376 0.21631256
0.082487136 -0.06922131 0.21614501
0.080140322 -0.068138614 0.21643288
0.077840403 -0.066947065 0.21638843
0.075762726 -0.065656655 0.21609434
0.073462039 -0.064149953 0.21604335
0.071178101 -0.062942527 0.21609926
0.069256209 -0.061906733 0.21614628
0.090624802 -0.074788414 0.21562824
0.088904589 -0.074051552 0.21567084
0.086535655 -0.072936252 0.21572925
0.083934456 -0.071711622 0.21579342
0.081951611 -0.070712626 0.21584208
0.079494387 -0.069451004 0.21590237
0.077682838 -0.068598136 0.21594705
0.15473348 0.050631698 0.21655963
0.15347183 0.051651113 0.21658945
0.15143991 0.052666239 0.21663938
0.1490667 0.053645257 0.21669832
0.14692338 0.054703679 0.21675098
0.14429364 0.055840526 0.21681614
0.14170392 0.056860209 0.21688062
0.13952224 0.057965875 0.21693417
0.13733377 0.058823362 0.21698868
0.13478747 0.060022146 0.21705146
0.1332314 0.060754731 0.21708985
0.16328779 0.043838914 0.21635738
0.16180351 0.045265436 0.21639179
0.15988055 0.046400312 0.21643852
0.15744627 0.04740335 0.21649897
0.15515569 0.048650187 0.21670207
0.15286407 0.04992786 0.21707572
0.15055852 0.050888747 0.21688147
0.14826234 0.051981721 0.21683581
0.14593625 0.053177908 0.21708433
0.14357573 0.054317527 0.21739548
0.14122796 0.05535312 0.21759248
0.13880746 0.056567334 0.21739331
0.13641532 0.057574101 0.21726003
0.13414969 0.05866529 0.21726978
0.131777 0.059597246 0.21729602
0.12934485 0.060337566 0.2171928
0.12697759 0.061010338 0.21725249
0.16765785 0.039194468 0.21625783
0.16569349 0.040434688 0.21630529
0.1635081 0.041991666 0.21641913
0.1611443 0.042964436 0.21682453
0.15903875 0.04432784 0.21729809
0.15665497 0.045442175 0.21733846
0.15423575 0.046517089 0.21755549
0.1519167 0.047570214 0.21764313
0.14982279 0.048942409 0.21769361
0.14727148 0.050268028 0.21775618
0.14493088 0.05130003 0.21781413
0.14258981 0.052331302 0.21787204
0.14020938 0.053167496 0.21793152
0.13783401 0.054547668 0.21798937
0.13543878 0.055476326 0.21804902
0.13299415 0.056348555 0.21811016
0.13072482 0.057564713 0.21815188
0.12834385 0.058779396 0.2179082
0.12602134 0.059623756 0.217402
0.12366664 0.060591035 0.2173405
0.12073248 0.061239347 0.21741508
0.11869436 0.062147528 0.21746549
0.11660572 0.062878221 0.21751773
0.17310701 0.033531521 0.2161331
0.17149031 0.034703076 0.21617177
0.16934127 0.03603616 0.21643074
0.16720782 0.037357122 0.21689869
0.16480933 0.038489301 0.21723333
0.16241515 0.039651293 0.21737948
0.16015902 0.04067735 0.21722709
0.15824085 0.042263471 0.21749462
0.15562332 0.043028817 0.21756047
0.15301365 0.044257753 0.21762487
0.15117994 0.045388758 0.21766934
0.13382836 0.054522786 0.21809417
0.13223562 0.055112295 0.21813393
0.12994075 0.05603344 0.21819103
0.127332 0.05693467 0.21825643
0.12509808 0.057723135 0.21827304
0.12243468 0.058642261 0.21836463
0.12007528 0.05960428 0.21830244
0.11784827 0.060547538 0.21770106
0.11540099 0.061669402 0.21755315
0.11308627 0.062167987 0.21761197
0.11070248 0.062817901 0.2176722
0.17636901 0.029038269 0.21606196
0.17509559 0.030217644 0.21609162
0.17309356 0.031742655 0.21613921
0.17071009 0.032838956 0.21660085
0.16857561 0.033989664 0.21718475
0.16641136 0.035319123 0.21730289
0.16410838 0.036942001 0.21735792
0.1613602 0.037272528 0.21742865
0.15979725 0.038687665 0.2174651
0.15508628 0.041388065 0.2175798
0.15195864 0.042860527 0.21765693
0.11873528 0.057532385 0.21847923
0.11673646 0.05830726 0.21818163
0.11438615 0.059466839 0.21820204
0.11190262 0.060429968 0.21809156
0.109664 0.061577551 0.21770339
0.10726748 0.062170684 0.21776412
0.10539123 0.062651701 0.21781155
0.17803335 0.025229979 0.2160304
0.17641604 0.027065497 0.21606705
0.17443986 0.028247014 0.21624005
0.17207958 0.029512338 0.21695061
0.16993806 0.030713476 0.21722513
0.16852234 0.03205163 0.21725795
0.16089764 0.035620231 0.21744601
0.11733741 0.056380764 0.21851937
0.11573272 0.056866035 0.21855974
0.11336829 0.057604246 0.2186193
0.11089022 0.058218226 0.21866827
0.10855871 0.059381552 0.21827176
0.10626404 0.060288779 0.21786298
0.10388081 0.06128104 0.21785548
0.1018441 0.061128214 0.21790908
0.17927448 0.021991314 0.21600814
0.17783447 0.023583638 0.21613953
0.17554322 0.024708746 0.2166529
0.17351809 0.026145067 0.21707039
0.17143835 0.027502082 0.21719605
0.17000538 0.028805792 0.21722937
0.10953164 0.056004595 0.21872449
0.1073821 0.057221413 0.21877687
0.10505752 0.05797261 0.21856593
0.10267728 0.058919616 0.21804069
0.10036392 0.059968382 0.21795152
0.098465756 0.060068481 0.21800068
0.18038343 0.019059332 0.21598838
0.17916846 0.020171532 0.21609879
0.17707959 0.021333618 0.21679245
0.17525387 0.022883968 0.21711075
0.10895637 0.054150455 0.21874544
0.10367605 0.055962391 0.21887779
0.10164138 0.056689471 0.21889824
0.099279188 0.057824247 0.21853842
0.097045615 0.058791004 0.21804194
0.094794497 0.058973812 0.21810009
0.18190604 0.015096715 0.21596102
0.18029404 0.01666077 0.21599838
0.17824635 0.017865088 0.21667676
0.17666642 0.01886072 0.21708645
0.10247726 0.054691762 0.21891308
0.10096177 0.055366639 0.21895057
0.098020412 0.05616888 0.21899638
0.09585081 0.056629792 0.21845502
0.093447395 0.057689488 0.21813947
0.091193162 0.05807668 0.21819709
0.18317619 0.012129625 0.21593721
0.18157542 0.013286494 0.21602239
0.17937061 0.014424497 0.21663895
0.17761788 0.015899891 0.21707094
0.17632779 0.017144173 0.21710075
0.094437525 0.054730859 0.21900681
0.09225744 0.055383708 0.21863943
0.089903437 0.056436926 0.21823603
0.088085838 0.0568235 0.21828219
0.18445775 0.0083997026 0.21591535
0.18279865 0.0098397899 0.21603771
0.18052179 0.010958696 0.2167604
0.17882855 0.012323791 0.21705055
0.093005948 0.051865261 0.21916954
0.091224827 0.053141095 0.21914525
0.088815026 0.054063134 0.21882619
0.086658902 0.055059794 0.21839184
0.084835894 0.054847334 0.21837334
0.18505697 0.0048984173 0.21591072
0.18407692 0.006318849 0.21600777
0.18188116 0.0074921823 0.21675499
0.17987117 0.008661529 0.21703482
0.089465268 0.051394425 0.21926354
0.087625496 0.051706474 0.2193106
0.085392892 0.052949276 0.21895704
0.08311744 0.053644694 0.21849683
0.081084773 0.053778742 0.21847475
0.18430443 0.0032170233 0.21593565
0.18310505 0.0039754896 0.21640234
0.18117061 0.0054277643 0.21701099
0.17974 0.0066789468 0.21704444
0.088537067 0.049790416 0.21929283
0.086539194 0.049758274 0.21934511
0.084230334 0.05060209 0.21940276
0.081936814 0.051586401 0.21875952
0.07985758 0.052282393 0.21851161
0.18533452 -0.00087840622 0.21592158
0.18404287 0.00051205279 0.21614726
0.18251556 0.00127046 0.21665542
0.18129553 0.0033410969 0.21701427
0.084804088 0.04835178 0.21939492
0.08314085 0.048369419 0.21943825
0.080809847 0.04942726 0.21910621
0.078466222 0.050370183 0.21859881
0.07645791 0.050854221 0.21860492
0.18678804 -0.0041553359 0.21589389
0.18535817 -0.0028659904 0.21592736
0.18321329 -0.0017569065 0.21674389
0.18139601 -0.00074938312 0.21702448
0.081643395 0.046456315 0.21948351
0.079748139 0.046980135 0.21953125
0.077388644 0.048021205 0.21930568
0.075077355 0.049226061 0.21864618
0.074009053 0.050512336 0.21866994
0.18603086 -0.0060877055 0.21591978
0.18449758 -0.005180412 0.2162658
0.18223235 -0.004137856 0.2170132
0.18087572 -0.0026373111 0.21704401
0.080358662 0.044955689 0.21952179
0.078684956 0.045247376 0.21956462
0.076271608 0.045804251 0.21956336
0.074089825 0.046740644 0.21892403
0.072100654 0.046814036 0.21873143
0.18524088 -0.0086879972 0.21594867
0.18342403 -0.0075799543 0.21677057
0.1816256 -0.0066392971 0.21703701
0.074839436 0.043558974 0.21967049
0.072813451 0.044492561 0.21947029
0.070533916 0.045410331 0.21877694
0.18560667 -0.012298848 0.21595037
0.18445837 -0.010995868 0.21615036
0.18223929 -0.0099067269 0.21700367
0.18096653 -0.0087165544 0.21706071
0.073777288 0.041120276 0.21970583
0.071699291 0.042111989 0.21973281
0.069484651 0.043122645 0.21898259
0.067445084 0.043100424 0.21886481
0.18495695 -0.014382688 0.2159739
0.18351226 -0.013493045 0.21636753
0.18173361 -0.012092981 0.21705127
0.072564945 0.039708249 0.21974199
0.070446804 0.03987718 0.21979673
0.068201229 0.040868137 0.21915105
0.06633389 0.041512307 0.21889891
0.18450513 -0.016909948 0.21599376
0.18264255 -0.015785797 0.21658446
0.068858922 0.037750795 0.21984501
0.0669787 0.038589451 0.2195836
0.064880922 0.039368544 0.21898532
0.18338333 -0.019013038 0.21602969
0.18186912 -0.018265273 0.21704277
0.067832693 0.035862397 0.21987769
0.065995917 0.036288884 0.21989399
0.063771516 0.037282895 0.21920896
0.061969958 0.037093621 0.21902677
0.18395299 -0.022595454 0.21602598
0.1826207 -0.021507872 0.21623491
0.18104333 -0.020288633 0.21709506
0.066142723 0.032946609 0.21993105
0.064879954 0.033830613 0.21996118
0.062627353 0.034885921 0.21937223
0.060855541 0.035585899 0.2190607
0.1830959 -0.024819288 0.21605541
0.1813795 -0.023964806 0.21645704
0.17930293 -0.02321578 0.21710806
0.063572213 0.031645801 0.22000232
0.061436534 0.032501869 0.21953028
0.059554629 0.033285554 0.21910195
0.1823201 -0.027324773 0.21608359
0.18031254 -0.026235128 0.21649201
0.17834964 -0.025160037 0.21704349
0.062249046 0.029445056 0.22004388
0.060296454 0.030263763 0.21971713
0.058333781 0.031200483 0.21914043
0.18316077 -0.029987058 0.21606985
0.18163618 -0.029745622 0.21642961
0.17931454 -0.028555838 0.21716613
0.17771974 -0.027721385 0.2172053
0.061188687 0.026932992 0.22007948
0.059185229 0.027907427 0.21967508
0.057325937 0.02885909 0.21917413
0.18143007 -0.033666141 0.21612665
0.1804527 -0.032128457 0.2165875
0.1782555 -0.030959085 0.21720135
0.17713672 -0.02944125 0.21722594
0.060194943 0.024652163 0.22011255
0.058104116 0.025476098 0.21977161
0.056264341 0.026224073 0.21921013
0.18095808 -0.034936652 0.21614295
0.17938733 -0.034455139 0.21654376
0.17705922 -0.033433519 0.21724042
0.1753592 -0.033641752 0.21728559
0.058658239 0.022391174 0.22015986
0.056932852 0.0231758 0.21987735
0.054745931 0.02419371 0.21925625
0.053183213 0.024291892 0.21929665
0.17793551 -0.036759175 0.21626116
0.17595677 -0.035714287 0.21708232
0.17447114 -0.035308082 0.21731402
0.057803992 0.019748362 0.22019054
0.055904172 0.020859096 0.21974869
0.05370672 0.021887532 0.21929066
0.052650698 0.023159865 0.21931413
0.17843466 -0.040033787 0.21622492
0.17708662 -0.039226294 0.21625778
0.17487314 -0.037942111 0.21715914
0.17387076 -0.036658213 0.21733396
0.057060812 0.017663086 0.22021642
0.054806504 0.018589359 0.22017376
0.052974477 0.019189531 0.21948496
0.17783557 -0.041307315 0.21624459
0.1760091 -0.041465625 0.21639299
0.17390431 -0.040425967 0.21734484
0.055220097 0.015362971 0.22027175
0.053705696 0.016172685 0.21992227
0.05225528 0.017341277 0.21939038
0.17455927 -0.043438032 0.21638148
0.1726709 -0.04284035 0.21735132
0.17087716 -0.043169636 0.21743268
0.055723649 0.011043919 0.22027221
0.054553468 0.012566185 0.22020704
0.052845284 0.013785198 0.21955922
0.1732118 -0.045762125 0.21637954
0.17151549 -0.045095302 0.21704508
0.16953233 -0.044362582 0.2174716
0.055300638 0.0097104032 0.22028741
0.053738348 0.010420302 0.21986802
0.051511563 0.011404091 0.21938096
0.049717844 0.011231834 0.21942826
0.17184457 -0.048165914 0.21642277
0.17033097 -0.047480747 0.21687703
0.16870433 -0.046525784 0.21750003
0.053968918 0.0070865634 0.22033048
0.05268731 0.0079817642 0.22032051
0.050430015 0.0089172665 0.21965082
0.049024351 0.0098565016 0.21945068
0.17086998 -0.050269641 0.21645483
0.16923687 -0.049743894 0.21674599
0.16757992 -0.048872691 0.21753675
0.053161312 0.004594984 0.22035944
0.051559649 0.0055543841 0.21995075
0.049332127 0.006796123 0.21952596
0.048457272 0.0083684698 0.21947019
0.16983096 -0.051711805 0.2164865
0.1681267 -0.052079558 0.21673825
0.16645457 -0.051258679 0.2175737
0.054001264 0.00073791016 0.22034961
0.05275441 0.0020902934 0.22037785
0.050611734 0.0032017906 0.21954261
0.048152462 0.0043783789 0.21949083
0.04632052 0.0045118271 0.21953814
0.16664501 -0.054001894 0.21674852
0.16486736 -0.053603295 0.21748683
0.16242415 -0.053334266 0.21768555
0.053288218 -0.00097922422 0.22037362
0.051801935 -0.00014588935 0.22036973
0.04962571 0.00085595483 0.21953587
0.047122672 0.0023667761 0.21952404
0.04547181 0.0030504684 0.21956493
0.16534182 -0.055561375 0.21661593
0.16358197 -0.055523384 0.21694769
0.16125034 -0.054682583 0.21755816
0.15962154 -0.054545894 0.21776259
0.052616395 -0.0036474336 0.22039959
0.050706528 -0.002574574 0.22044598
0.048350915 -0.0014698543 0.22007348
0.046219543 -0.0003858204 0.21975634
0.16215226 -0.057423767 0.21670519
0.16015282 -0.057060946 0.2172436
0.15845563 -0.056602508 0.21779951
0.051540293 -0.0059512164 0.22043496
0.049569279 -0.0049921065 0.22048332
0.047210485 -0.0038217825 0.22054133
0.045314297 -0.0028433476 0.22058794
0.15882619 -0.059224915 0.21690395
0.15679222 -0.05844542 0.2176031
0.15479648 -0.058527544 0.21790123
0.052762978 -0.0097284438 0.22041488
0.050789505 -0.0084688189 0.21999885
0.048538908 -0.007279661 0.21986021
0.046581164 -0.0064054364 0.21994586
0.15753914 -0.061463665 0.21683854
0.15552469 -0.060502887 0.21721129
0.15384214 -0.059771828 0.21793009
0.056627549 -0.015089454 0.22033067
0.053658791 -0.013205409 0.2204023
0.052050464 -0.011809809 0.22035292
0.04986576 -0.010711906 0.22028388
0.047676831 -0.0097302869 0.22021432
0.15652804 -0.063470758 0.21687123
0.15435633 -0.062887616 0.21698026
0.15222505 -0.062147535 0.21772107
0.15038954 -0.062358629 0.21802844
0.055532102 -0.01631074 0.22036301
0.053175565 -0.015266342 0.22033158
0.051069945 -0.014229989 0.21961099
0.048448317 -0.013093606 0.21971984
0.047007546 -0.011566154 0.22043309
0.15305284 -0.065079473 0.21696714
0.15112954 -0.064406417 0.21735539
0.14873251 -0.063836634 0.21807638
0.055970266 -0.020178108 0.22036381
0.054456487 -0.018821739 0.22037123
0.05219917 -0.017735565 0.21991609
0.049822733 -0.016645001 0.21951322
0.048277669 -0.015725585 0.21955055
0.15160626 -0.066618979 0.21700966
0.14990142 -0.066514321 0.21746317
0.1475798 -0.06537839 0.21811123
0.14570057 -0.064736798 0.21815845
0.056915462 -0.023632146 0.22034997
0.055591788 -0.022318877 0.22022164
0.053563446 -0.021069352 0.21979086
0.051162422 -0.020041235 0.21948886
