# .PCD v0.7 - Point Cloud Data file format
VERSION 0.7
FIELDS x y z
SIZE 4 4 4
TYPE F F F
COUNT 1 1 1
WIDTH 1369
HEIGHT 1
VIEWPOINT 0 0 0 1 0 0 0
POINTS 1369
DATA ascii
0.15821232 -0.065324813 0.21710818
0.16038591 -0.064823903 0.21703184
0.1624932 -0.064150795 0.21695895
0.099730447 -0.07470607 0.21918719
0.10172573 -0.074669138 0.2191146
0.10425472 -0.074438438 0.21923065
0.10677561 -0.074204914 0.21955645
0.10938694 -0.073662773 0.21973997
0.11200228 -0.073149323 0.21973483
0.11440929 -0.072613887 0.21944198
0.11690678 -0.072724074 0.21957247
0.11945734 -0.071760386 0.21948509
0.12228019 -0.07117179 0.21938562
0.12442442 -0.070971891 0.21930858
0.14377198 -0.067827538 0.21862102
0.14539836 -0.067340046 0.21856457
0.14778481 -0.066694997 0.21848138
0.15041001 -0.065845162 0.21839076
0.15266588 -0.065131247 0.21827343
0.15534684 -0.064262524 0.21820571
0.1578027 -0.063612744 0.21799912
0.16011181 -0.06303408 0.21726148
0.16272905 -0.062460165 0.21696097
0.16487743 -0.061465595 0.21688852
0.16717193 -0.060550354 0.21681032
0.094425023 -0.073079437 0.21939121
0.096150823 -0.07325533 0.21932712
0.098666251 -0.073268898 0.21923517
0.10125108 -0.072705612 0.21954711
0.10367689 -0.072334073 0.21999267
0.10620803 -0.072093017 0.21996741
0.10902263 -0.072003677 0.21986504
0.11141623 -0.070614025 0.21978614
0.11351495 -0.070804022 0.21970829
0.11890034 -0.070126481 0.21951573
0.12228321 -0.069420755 0.21939649
0.15763545 -0.061149605 0.21815585
0.15967828 -0.06057002 0.21773726
0.16225022 -0.060082532 0.2176089
0.16480303 -0.059359562 0.21734767
0.16725604 -0.058934566 0.21681744
0.16952658 -0.057966318 0.21674041
0.17131419 -0.057221554 0.21667962
0.090807274 -0.071038619 0.2195361
0.093202017 -0.07153175 0.21944565
0.09549734 -0.071284957 0.21948838
0.09817908 -0.070867658 0.22004604
0.10062364 -0.070535876 0.22018117
0.10255849 -0.070752993 0.22010911
0.11079282 -0.069015697 0.21981893
0.15805992 -0.059388451 0.21815127
0.15963322 -0.058810499 0.21809731
0.16196531 -0.057977438 0.21801732
0.16431274 -0.056976922 0.21792388
0.16684881 -0.056508746 0.21738015
0.16920088 -0.055858292 0.21683218
0.17169695 -0.055217676 0.21667823
0.17323184 -0.053870007 0.21663038
0.08786983 -0.069198191 0.2196549
0.089982316 -0.069602534 0.21967395
0.092513785 -0.069117114 0.22004163
0.095014855 -0.069041491 0.22031988
0.097495593 -0.068873189 0.22030585
0.099423528 -0.069052406 0.22023425
0.16406842 -0.054390844 0.21796264
0.16651648 -0.054069433 0.21787518
0.16880959 -0.053273965 0.2175269
0.17124733 -0.052605227 0.21685728
0.17371714 -0.052052759 0.21662405
0.17529336 -0.050990511 0.21657291
0.085222259 -0.067523211 0.21976209
0.086865544 -0.067679636 0.21978322
0.089267924 -0.067343295 0.22034045
0.091673039 -0.067479894 0.22052723
0.16341373 -0.052563444 0.21799801
0.16871998 -0.050833538 0.21781486
0.1707803 -0.050190385 0.21771309
0.17332572 -0.049680505 0.21720511
0.17566 -0.049115408 0.2165713
0.17756782 -0.047906835 0.21650895
0.081624962 -0.065273829 0.21990752
0.083852336 -0.065553285 0.21982454
0.086246431 -0.065275624 0.2203676
0.088127218 -0.065115832 0.2206715
0.16891393 -0.049097098 0.21781853
0.1705299 -0.048724297 0.21776178
0.17335968 -0.047595572 0.21763681
0.17533642 -0.0466654 0.21697353
0.17787202 -0.046070218 0.21650939
0.17990516 -0.045023054 0.21644151
0.078827538 -0.063667819 0.22001982
0.080803871 -0.063628174 0.21999483
0.083279908 -0.063203812 0.22046967
0.085588098 -0.063323058 0.22077551
0.087366208 -0.063540764 0.22070917
0.17535236 -0.044291839 0.21749677
0.17746249 -0.0435066 0.21700206
0.17994994 -0.042937018 0.21645293
0.18163395 -0.042152099 0.21639612
0.075562604 -0.061459266 0.2201528
0.077757731 -0.061610352 0.22015516
0.080285639 -0.061126094 0.22073272
0.08247222 -0.061194729 0.22090265
0.17478028 -0.041139752 0.21765362
0.17696583 -0.041088 0.2175072
0.17942359 -0.040379055 0.21704249
0.18171754 -0.039883677 0.216474
0.18304223 -0.038617764 0.21636662
0.072980046 -0.059022773 0.22026236
0.07462059 -0.059566855 0.22027494
0.077117898 -0.059174579 0.22087985
0.079438791 -0.058896448 0.22102779
0.17732532 -0.038633026 0.21757615
0.17898229 -0.037775233 0.21752088
0.18148965 -0.037429515 0.21702324
0.18369624 -0.036622033 0.21642992
0.18539616 -0.035506863 0.21629992
0.072570756 -0.057226714 0.22028846
0.074008755 -0.057105649 0.22067451
0.076457717 -0.057095025 0.22114792
0.078352205 -0.057233691 0.22107781
0.17710283 -0.03679309 0.21759571
0.17867923 -0.035565197 0.21754567
0.18103039 -0.034849953 0.21746415
0.18341488 -0.034264579 0.2166803
0.18547717 -0.033573017 0.21630907
0.069287032 -0.054574847 0.22042495
0.071165115 -0.054906037 0.2205506
0.072866827 -0.054587208 0.22096117
0.07510405 -0.055503216 0.22120728
0.1792199 -0.033397492 0.21753943
0.18055895 -0.03241073 0.21749654
0.18303478 -0.03185783 0.21701971
0.18544188 -0.031207625 0.2163699
0.1873343 -0.030386355 0.21626095
0.066156968 -0.052831654 0.22055018
0.068073794 -0.053001255 0.22047922
0.070495769 -0.05258742 0.22115748
0.072565794 -0.052295908 0.22131996
0.18060538 -0.029981326 0.21751006
0.1824339 -0.029259324 0.21744756
0.18492827 -0.028674599 0.21707596
0.18745859 -0.028254919 0.21626973
0.18908477 -0.028639641 0.21620777
0.065600544 -0.050832316 0.22058296
0.067387521 -0.050630771 0.22082782
0.069861636 -0.050092224 0.22143243
0.071846887 -0.050474621 0.22135757
0.18072976 -0.02800943 0.21751775
0.18224184 -0.027235307 0.21746729
0.18450058 -0.026228707 0.21732838
0.18676738 -0.025672216 0.21655536
0.18838669 -0.0245368 0.21625878
0.064668983 -0.048279647 0.22063296
0.066829115 -0.04806219 0.22133352
0.068843111 -0.047728799 0.22148444
0.18429872 -0.02357246 0.21741493
0.18646401 -0.023102155 0.21708842
0.18879458 -0.022472642 0.21625686
0.062207025 -0.045615163 0.22073942
0.063916817 -0.045962993 0.22084889
0.066388011 -0.045488153 0.22156054
0.068121292 -0.04567273 0.22152355
0.18368164 -0.020985112 0.21745349
0.18593594 -0.020527225 0.21734971
0.18826744 -0.020011632 0.21646251
0.18987361 -0.018768635 0.21624032
0.061473764 -0.043559477 0.220779
0.063182153 -0.043396533 0.22107635
0.065479688 -0.043437 0.22163399
0.18380146 -0.019127561 0.21746069
0.18559474 -0.017987933 0.21740215
0.18794486 -0.017436737 0.21661818
0.18980682 -0.016831269 0.21625486
0.060315989 -0.041268647 0.22083566
0.062509432 -0.04103934 0.22130266
0.18558523 -0.01533372 0.21741909
0.18757385 -0.01487598 0.21704122
0.18968143 -0.014243864 0.21631725
0.059948225 -0.0389135 0.22086373
0.061661128 -0.038587969 0.22177933
0.18527013 -0.013207609 0.21744373
0.18699178 -0.012443402 0.21735519
0.18932468 -0.011907856 0.21653296
0.19063711 -0.01067533 0.2162627
0.057340525 -0.036394399 0.22097462
0.059068017 -0.036459416 0.22108868
0.061106186 -0.036474358 0.22183712
0.1848678 -0.0098613324 0.21747927
0.1864076 -0.0098076705 0.21742323
0.18880513 -0.0093029737 0.216694
0.1906212 -0.0088002607 0.21627499
0.056688771 -0.034102097 0.22101273
0.058593079 -0.033747561 0.22130491
0.060735006 -0.033089168 0.22183003
0.18613924 -0.007275355 0.21744888
0.18833029 -0.0066804169 0.21684714
0.19027796 -0.0061797607 0.21630386
0.055802844 -0.031633709 0.22106048
0.058081023 -0.031291824 0.22133884
0.060322776 -0.030963469 0.22176267
0.18587363 -0.004721039 0.21747452
0.18790431 -0.0042046211 0.21702816
0.19000012 -0.0037794174 0.21632895
0.053531609 -0.030012749 0.22115344
0.054912172 -0.029284365 0.22142829
0.05751916 -0.028829634 0.22201565
0.059294373 -0.028536588 0.22195269
0.18521103 -0.0020761564 0.21751516
0.18737157 -0.0016544769 0.21698496
0.18939814 -0.0013024793 0.21636634
0.052703135 -0.026032198 0.22120845
0.054432191 -0.026667196 0.22158161
0.056920879 -0.026272483 0.22205339
0.058726564 -0.026811805 0.22198416
0.18463415 0.00034391601 0.21755122
0.18677743 0.0009391252 0.21708345
0.18866265 0.0014413707 0.21641025
0.052316673 -0.024733204 0.22123064
0.053880617 -0.024168339 0.22153838
0.056389458 -0.023575868 0.2220896
0.057622164 -0.022386536 0.22205202
0.1845029 0.0030748602 0.21757302
0.18633442 0.0034823809 0.21718337
0.18865535 0.0039770687 0.21642633
0.18996249 0.00483899 0.21638377
0.053637505 -0.021458022 0.22123621
0.055888705 -0.021092761 0.22192919
0.057330146 -0.02052097 0.22207429
0.1835971 0.0057001673 0.2176225
0.18575488 0.005950178 0.217057
0.18809956 0.0064447466 0.21646197
0.18970758 0.0060637742 0.2164007
0.051269233 -0.019142792 0.22130367
0.052831158 -0.018976696 0.22124778
0.055417784 -0.018660452 0.22200303
0.056998372 -0.019081105 0.22209536
0.18293762 0.0078132367 0.21765965
0.18528929 0.0084286025 0.21747881
0.18707243 0.0090427315 0.2166824
0.05098246 -0.017764905 0.22132273
0.052351698 -0.016538162 0.2213805
0.054707497 -0.016091347 0.22219758
0.18302566 0.010758379 0.21767472
0.18470034 0.011018162 0.21722849
0.18652961 0.010950592 0.21659487
0.052321374 -0.0140907 0.22134119
0.054239973 -0.013420764 0.22219792
0.055476621 -0.012077937 0.22219451
0.18002813 0.013905731 0.2178039
0.18187244 0.013392693 0.21764228
0.1839311 0.013438483 0.21687846
0.051998585 -0.011423748 0.22132508
0.053788714 -0.010928219 0.22188626
0.055833898 -0.010315677 0.22219244
0.17956465 0.015225579 0.21782899
0.18121365 0.015593062 0.21731286
0.18355328 0.016140588 0.21668839
0.18488242 0.017357565 0.21664724
0.051646136 -0.0086807068 0.22135496
0.05328992 -0.0083122514 0.22171417
0.055195346 -0.0080893096 0.22222961
0.17905162 0.018123049 0.21786577
0.18061094 0.018178612 0.21776846
0.18293574 0.018780865 0.21696123
0.18460988 0.018873584 0.21666661
0.05116041 -0.0064136358 0.22138679
0.052794591 -0.0058479216 0.22158079
0.054683149 -0.005537827 0.22226414
0.17819947 0.020599473 0.21791233
0.18003041 0.020791456 0.21739891
0.18252914 0.021134112 0.21683045
0.18416864 0.02040356 0.21669227
0.051123664 -0.0046363184 0.22139916
0.052275322 -0.0033145174 0.2215714
0.05414822 -0.0029545473 0.22229978
0.17521083 0.023175336 0.21803756
0.17701937 0.02284525 0.21796931
0.17934939 0.023235984 0.21699853
0.18201442 0.023774557 0.21679208
0.18355779 0.024770308 0.21674171
0.052301705 -0.00088763284 0.22155102
0.053999498 -0.00012804009 0.22218701
0.05612012 0.0011288691 0.22225307
0.17474851 0.024976179 0.21806565
0.17643416 0.025204338 0.2179653
0.17872509 0.02570286 0.2169968
0.18162814 0.026001234 0.21682
0.18335752 0.026448458 0.21675947
0.052395947 0.0011403197 0.22138856
0.053840242 0.0021723825 0.22162817
0.056238428 0.0029103821 0.22209747
0.057630502 0.0037832661 0.22221436
0.17368177 0.027512003 0.21812043
0.17585187 0.027804177 0.21804276
0.17837326 0.028333962 0.21752316
0.1807065 0.028746061 0.21707086
0.05382435 0.0045474386 0.22135758
0.055666387 0.0054666046 0.22178343
0.057325892 0.0061278176 0.22224005
0.17315689 0.029999968 0.21815509
0.17530748 0.030419812 0.21807893
0.17789473 0.030904267 0.21798742
0.17999719 0.031263657 0.21791294
0.055404484 0.0079890573 0.22142741
0.057533406 0.0085980566 0.22200206
0.059091724 0.0098675536 0.22219877
0.16991055 0.032281738 0.21828791
0.17221797 0.032457415 0.21774086
0.17471938 0.0328594 0.21745814
0.17681044 0.033339519 0.21742195
0.055081286 0.010550727 0.22134903
0.057285525 0.010999261 0.22159448
0.059106253 0.011435847 0.22220801
0.16360241 0.03423899 0.2185306
0.16710572 0.034520324 0.21840425
0.1692241 0.034372181 0.21823883
0.17162198 0.034808263 0.21803118
0.17395329 0.035339773 0.21782555
0.054682784 0.012762553 0.22137731
0.056770772 0.013604174 0.22136034
0.058955915 0.014303698 0.2219725
0.060309455 0.01557996 0.22218977
0.16374347 0.035873823 0.21853547
0.16624826 0.036456443 0.21835776
0.16850993 0.036886297 0.21750514
0.17128915 0.037556563 0.21745165
0.17339551 0.037211489 0.21805313
0.056491777 0.016138904 0.22133219
0.058451243 0.016762648 0.22160466
0.060744788 0.017757799 0.22218738
0.16106957 0.03869969 0.21865086
0.16309215 0.038526703 0.21854796
0.16551945 0.039011184 0.21795136
0.16804725 0.039564434 0.2174007
0.16983376 0.039759669 0.21733646
0.056722052 0.018239237 0.22133671
0.058169335 0.019186437 0.2216991
0.060739014 0.019683097 0.22219944
0.062625498 0.020301383 0.22213446
0.15823908 0.04089025 0.21876794
0.16007665 0.040635727 0.21854034
0.16242093 0.040852293 0.21797596
0.16493639 0.041471429 0.21752623
0.16753194 0.041997131 0.21743464
0.16897193 0.042792525 0.21738683
0.058249481 0.021512654 0.22133164
0.060202021 0.022295471 0.22165732
0.062766254 0.022898205 0.22200239
0.065216392 0.023397502 0.22205891
0.066719115 0.02435549 0.22201002
0.1551204 0.043386225 0.21889745
0.15718295 0.042874012 0.21875997
0.15933439 0.042995751 0.21805239
0.16184594 0.043447517 0.21765147
0.16472474 0.043309961 0.21754532
0.16673806 0.043791763 0.21747473
0.058348812 0.023548469 0.22131027
0.060020674 0.024404675 0.22125457
0.062416289 0.025358386 0.22125636
0.064695731 0.02601631 0.22178419
0.067012809 0.026598908 0.22201321
0.068866432 0.027727243 0.22195251
0.15161704 0.044929679 0.21903504
0.15386325 0.044886913 0.21884321
0.15622841 0.045059532 0.21826437
0.15880373 0.045623343 0.21777619
0.16095378 0.045792367 0.21769859
0.062732376 0.027373873 0.22117382
0.06432268 0.028367937 0.22117288
0.066625133 0.028976854 0.22189501
0.068858035 0.029538196 0.22196406
0.14885901 0.047003221 0.21914877
0.15081005 0.046572242 0.21871196
0.15319809 0.046947859 0.21804816
0.15569286 0.047530334 0.21790172
0.15817152 0.047918588 0.21781355
0.15998332 0.047626663 0.21774539
0.064568281 0.030357182 0.22112526
0.066188402 0.031138774 0.22127114
0.068892658 0.032016817 0.2217667
0.071303353 0.032734923 0.22189456
0.073043376 0.033541314 0.22183596
0.14546563 0.048596397 0.21928266
0.14767265 0.048643213 0.21903288
0.15009804 0.048919156 0.21840765
0.15285158 0.04888206 0.2180139
0.15518641 0.049826566 0.21793449
0.15702538 0.049565502 0.21786554
0.066561818 0.033435486 0.22107153
0.068383142 0.034341771 0.22101074
0.07079836 0.035050474 0.22129324
0.073203981 0.035702664 0.2217201
0.075436369 0.036771242 0.22176865
0.077507138 0.037790369 0.22169927
0.13706774 0.049751993 0.21959679
0.13944577 0.049731426 0.21950968
0.1415033 0.050070848 0.21943662
0.1446958 0.050499253 0.21888077
0.14697631 0.05094916 0.21826859
0.1492652 0.051320389 0.21816018
0.069066413 0.0364873 0.22099897
0.070430279 0.037546013 0.22095583
0.072753258 0.038196258 0.22106625
0.075320199 0.03884872 0.22162098
0.077876806 0.039455689 0.22169603
0.079922721 0.040381335 0.22162706
0.13194236 0.051536802 0.21979521
0.13408002 0.051298201 0.21971557
0.13636419 0.051567353 0.2194479
0.13883403 0.051812999 0.21954501
0.14149366 0.05258397 0.2194526
0.14414281 0.053169485 0.21896784
0.14637831 0.053480774 0.21827912
0.14838859 0.053322867 0.21820453
0.072778612 0.039937466 0.22088473
0.075002804 0.041081537 0.22084196
0.077429183 0.041665703 0.22094798
0.079889417 0.042283945 0.22115374
0.082242854 0.04312557 0.22144811
0.084819697 0.04373743 0.22146894
0.087173939 0.044657052 0.22138858
0.088783793 0.045280166 0.22133368
0.12398794 0.052410331 0.22009136
0.12570107 0.052402038 0.22002873
0.12826544 0.05272799 0.21993698
0.13079867 0.052858181 0.21984512
0.13344595 0.053020876 0.21970186
0.13535221 0.052974779 0.21887894
0.14240357 0.054379195 0.21943054
0.1437168 0.055311337 0.21862321
0.14531353 0.055391394 0.21832977
0.075391039 0.042918582 0.22080778
0.077115908 0.043797571 0.2207503
0.079385325 0.044763561 0.22067341
0.081935138 0.045358088 0.22061966
0.084515415 0.045909986 0.22111176
0.087111674 0.046376184 0.2214015
0.089382008 0.047336828 0.2210577
0.091560826 0.047882557 0.22118583
0.094459273 0.049000721 0.22114936
0.096113563 0.049377933 0.22109126
0.099896863 0.050086934 0.2209574
0.1010341 0.050404452 0.22091781
0.11255062 0.052501984 0.22050987
0.1137968 0.053066976 0.2204679
0.12327631 0.053867273 0.22012644
0.1251865 0.054198187 0.22005859
0.12776412 0.054807 0.21996816
0.1294273 0.054862835 0.21990776
0.13325553 0.056704998 0.2197793
0.1382318 0.057845123 0.21885407
0.14024661 0.05769179 0.21899632
0.14252374 0.056955621 0.21844147
0.079898551 0.046574604 0.22066577
0.081549749 0.047078826 0.22060855
0.084301062 0.048151799 0.22061901
0.086484492 0.048823606 0.22063926
0.088948406 0.049429059 0.22040926
0.091634475 0.050070543 0.22067556
0.093983546 0.050315101 0.22063401
0.096285544 0.050212853 0.22103453
0.099448971 0.050933421 0.22097903
0.10175444 0.052247599 0.22081955
0.10829983 0.05480992 0.22067964
0.11219507 0.053053904 0.22052637
0.11373275 0.053374697 0.22047216
0.12275487 0.056506872 0.22007486
0.12427294 0.05695001 0.21978818
0.1274057 0.056847125 0.21999402
0.13100603 0.058262527 0.21987122
0.1323892 0.058319718 0.21954662
0.13371851 0.058760881 0.2187745
0.08675126 0.051016547 0.22044292
0.087854341 0.051260091 0.22040412
0.091508642 0.05196527 0.22027498
0.093286797 0.052293483 0.22021198
0.096718647 0.053741761 0.22009557
0.098694518 0.054649182 0.22002904
0.10205381 0.054660544 0.21990629
0.10373894 0.05593089 0.22049825
0.10639098 0.056117669 0.2203335
0.10805982 0.055607401 0.21996558
0.11713718 0.058300026 0.21937764
0.11851205 0.058346249 0.21932767
0.12214807 0.058378197 0.21952856
0.12363723 0.058361687 0.21914046
0.1017335 0.056809619 0.21993135
0.10328801 0.057341471 0.22003192
0.10548967 0.057691209 0.21984731
0.10934633 0.059267499 0.2196684
0.10965234 0.059331335 0.21965761
0.12794651 -0.071845472 0.22017516
0.13007876 -0.071517147 0.22009927
0.13269398 -0.070783354 0.22000825
0.13506284 -0.070303507 0.21992466
0.13801171 -0.069367617 0.2198227
0.14032027 -0.069120668 0.21973985
0.14258598 -0.068558387 0.21966055
0.11713686 -0.071659356 0.22057138
0.11826152 -0.070818506 0.22053547
0.1212973 -0.071072519 0.22042294
0.12571837 -0.070346117 0.22026591
0.12728664 -0.070003986 0.22031377
0.12976736 -0.069547512 0.22012289
0.13184035 -0.069560349 0.22004706
0.13518888 -0.06856931 0.2202362
0.1374938 -0.067935638 0.21985053
0.13996623 -0.067419834 0.21976337
0.14243869 -0.066904031 0.21967621
0.14498529 -0.066293307 0.21958694
0.14760645 -0.065548472 0.21949577
0.14994743 -0.064861879 0.21941447
0.15249893 -0.063969307 0.21932676
0.15446575 -0.063489042 0.21925788
0.10427104 -0.071067795 0.22104529
0.10632479 -0.070893884 0.2209713
0.10881431 -0.070969716 0.22087985
0.11011674 -0.070420288 0.22083563
0.11535128 -0.070780285 0.22064206
0.11688796 -0.070004486 0.22064343
0.11877219 -0.068962283 0.22119552
0.12154844 -0.067668296 0.22143561
0.12358175 -0.067392729 0.22136301
0.12748098 -0.067724839 0.22064662
0.12959908 -0.067542531 0.220272
0.13183977 -0.066367477 0.22090362
0.13455275 -0.065903142 0.22083703
0.13692786 -0.065410033 0.22032568
0.13939005 -0.064947307 0.22021191
0.14194024 -0.064335853 0.2201374
0.14451443 -0.063595958 0.21963541
0.14714563 -0.063179433 0.21952733
0.14961806 -0.062663645 0.21944018
0.1520905 -0.062147815 0.21935302
0.15456298 -0.061632033 0.21926586
0.15665922 -0.060857993 0.21919405
0.10117213 -0.069456726 0.22116856
0.10332233 -0.069484472 0.2210898
0.10575707 -0.069189802 0.22108892
0.10844944 -0.068892695 0.22135541
0.11031301 -0.067995228 0.22105421
0.11342317 -0.067004755 0.22173668
0.11565895 -0.066208296 0.22165993
0.11871264 -0.0665695 0.22177215
0.12111527 -0.066034526 0.22199623
0.12353752 -0.065351039 0.22195348
0.12623034 -0.064823493 0.22155112
0.12880166 -0.064316258 0.2214285
0.13139801 -0.063898303 0.22109921
0.1339135 -0.063413389 0.22101031
0.13639815 -0.062895045 0.22092272
0.1388828 -0.062376719 0.22083513
0.14138621 -0.061863538 0.22073142
0.14392456 -0.061216861 0.2200655
0.14661598 -0.060651395 0.22024089
0.14915109 -0.060248613 0.22045767
0.15162444 -0.059694692 0.22018901
0.15403576 -0.059061959 0.21971057
0.15668434 -0.058508556 0.21949969
0.15914343 -0.057779491 0.21920866
0.16155183 -0.056986678 0.21903929
0.16303226 -0.056100693 0.21899065
0.095101804 -0.067838013 0.22140047
0.097661406 -0.067694642 0.22130781
0.10020909 -0.067614034 0.22122912
0.10280016 -0.066981778 0.22139865
0.10523099 -0.066508971 0.22195861
0.10804069 -0.065448023 0.22194308
0.11038084 -0.065566525 0.22185703
0.11287086 -0.065052517 0.22179702
0.11548495 -0.064535417 0.22170225
0.11807065 -0.063998245 0.22237293
0.12051564 -0.063491978 0.22249992
0.12316853 -0.062938541 0.2224064
0.12582138 -0.062385105 0.22231288
0.12839612 -0.061893314 0.22216301
0.13084792 -0.061303601 0.22138232
0.13336372 -0.060771886 0.22104685
0.13584964 -0.060279835 0.22100133
0.13834718 -0.059836604 0.22127363
0.14083646 -0.059257142 0.2211936
0.14349644 -0.058765814 0.22101805
0.14614515 -0.058236312 0.22127178
0.14855529 -0.057613794 0.22075494
0.15106677 -0.057078723 0.22042279
0.1535514 -0.056560371 0.2203352
0.15618116 -0.056019969 0.22024247
0.15884078 -0.055470686 0.22006752
0.16119242 -0.054855783 0.2194213
0.16298948 -0.054460414 0.21900246
0.16616523 -0.052991215 0.21889552
0.090192482 -0.066277057 0.2215896
0.092205793 -0.066481896 0.22151475
0.094574295 -0.066241302 0.22142968
0.097076342 -0.065640882 0.22148699
0.099550128 -0.065137483 0.22186081
0.10222188 -0.064512417 0.22216177
0.1048789 -0.063978344 0.22217737
0.1074393 -0.06352888 0.22253992
0.10986714 -0.062955059 0.22209519
0.11249071 -0.062544219 0.22272094
0.11498318 -0.062021177 0.22261746
0.11749887 -0.061514575 0.22262247
0.11999567 -0.060993697 0.22253445
0.12264855 -0.060440246 0.22244093
0.12530141 -0.059886817 0.22234742
0.12779821 -0.059365939 0.2222594
0.13034825 -0.058858871 0.22210962
0.13278171 -0.058241975 0.22164655
0.13530503 -0.057740763 0.22189674
0.13778546 -0.057282414 0.22190733
0.14043833 -0.056728989 0.22181381
0.14309125 -0.056175545 0.22172029
0.14558806 -0.055654667 0.22163229
0.14808483 -0.055133794 0.22154427
0.15060468 -0.05461235 0.22127886
0.15302831 -0.053973723 0.22074932
0.15567482 -0.053372372 0.2204802
0.15828148 -0.052817386 0.22018556
0.16085768 -0.052310325 0.21986465
0.16305447 -0.051791288 0.21903455
0.16581194 -0.051379845 0.21891846
0.16788778 -0.050648589 0.21884713
0.08941634 -0.064462721 0.22162925
0.091558613 -0.064134941 0.22159469
0.094074383 -0.063684858 0.22193642
0.096545115 -0.063146234 0.22225823
0.099064507 -0.062577024 0.22228916
0.10165282 -0.062028889 0.22231232
0.10433539 -0.061439414 0.2230271
0.10695913 -0.060943615 0.22301123
0.10945104 -0.060418699 0.22289562
0.11195277 -0.059901852 0.22283518
0.11444955 -0.059380975 0.22274718
0.11694639 -0.05886009 0.22265916
0.11940141 -0.058446668 0.222572
0.12211493 -0.057798143 0.22247687
0.12474892 -0.057232339 0.22238411
0.12724574 -0.056711465 0.22229609
0.12974256 -0.056190584 0.22220807
0.1322394 -0.055669703 0.22212006
0.1347362 -0.055148818 0.22203204
0.13723297 -0.054627936 0.22194402
0.13988586 -0.054074522 0.22185053
0.14253877 -0.053521063 0.22175699
0.14503558 -0.053000182 0.22166897
0.14753236 -0.052479319 0.22158095
0.15002915 -0.051958434 0.22149295
0.15252601 -0.051437542 0.22140492
0.15520838 -0.050857481 0.22102629
0.1577208 -0.050229721 0.22030789
0.16024867 -0.049812913 0.22013234
0.16274229 -0.049432229 0.21977672
0.16521394 -0.048742514 0.21906136
0.16787298 -0.048189033 0.21886295
0.17032218 -0.047534931 0.21877751
0.17260368 -0.046826638 0.21869853
0.17421901 -0.045807738 0.2186458
0.085952014 -0.062178239 0.22177006
0.088380679 -0.062048003 0.2216821
0.091054171 -0.061576508 0.22211897
0.093577802 -0.06112757 0.2224987
0.096062437 -0.060609236 0.22241111
0.098579809 -0.060056679 0.22242865
0.10102489 -0.059439257 0.22275904
0.10375378 -0.058842599 0.22314143
0.10640666 -0.058289167 0.22304791
0.10890346 -0.057768293 0.22295989
0.11140029 -0.057247404 0.22287188
0.11389709 -0.056726526 0.22278386
0.11639392 -0.056205645 0.22269584
0.11885318 -0.0556558 0.22260939
0.121558 -0.055112269 0.2225139
0.12419645 -0.054577895 0.2224208
0.12660962 -0.054113787 0.22233549
0.12924016 -0.053541981 0.22224289
0.13168693 -0.053015247 0.22215675
0.13418373 -0.052494362 0.22206873
0.13668051 -0.051973503 0.22198072
0.13933338 -0.051420055 0.2218872
0.1419863 -0.050866615 0.22179368
0.1444831 -0.050345737 0.22170566
0.14697988 -0.04982486 0.22161765
0.14947668 -0.049303994 0.22152963
0.1518182 -0.048749022 0.2210411
0.15458617 -0.048260383 0.22123821
0.15733007 -0.04781894 0.22072849
0.15973122 -0.047326785 0.2201667
0.16221586 -0.046808444 0.22007911
0.16482715 -0.046279877 0.21973345
0.16725737 -0.045543641 0.21898896
0.16981724 -0.045058887 0.21881135
0.17228965 -0.044543099 0.21872419
0.17440917 -0.043880932 0.21865085
0.083097324 -0.060213931 0.22188661
0.085248709 -0.060145151 0.22198041
0.088005975 -0.059663467 0.22230484
0.090605162 -0.059101287 0.22270952
0.092970535 -0.058504891 0.22306055
0.095643938 -0.057983946 0.22309974
0.098055348 -0.05751479 0.2231293
0.10058093 -0.056897692 0.22326948
0.1032338 -0.05634426 0.22317596
0.10588667 -0.055790823 0.22308244
0.10838348 -0.055269945 0.22299443
0.11088031 -0.054749053 0.22290641
0.11337711 -0.05422819 0.22281839
0.11587394 -0.053707309 0.22273038
0.11837073 -0.05318642 0.22264236
0.12102363 -0.052632987 0.22254884
0.12367647 -0.052079547 0.22245532
0.12617327 -0.051558677 0.22236732
0.12867011 -0.0510378 0.2222793
0.13116695 -0.050516907 0.22219127
0.13366374 -0.049996033 0.22210327
0.13616052 -0.049475156 0.22201525
0.13881339 -0.048921723 0.22192173
0.14146632 -0.048368286 0.22182821
0.14396311 -0.047847394 0.2217402
0.14645989 -0.04732652 0.22165218
0.1489567 -0.046805646 0.22156416
0.15145355 -0.046284754 0.22147615
0.15413296 -0.045783881 0.22101411
0.15672913 -0.045359001 0.22028865
0.15921378 -0.044840656 0.22020106
0.16169842 -0.044322319 0.22011347
0.16418305 -0.043803975 0.2200259
0.16681567 -0.043259591 0.21986455
0.16946061 -0.042694312 0.21965794
0.17177114 -0.042055488 0.21894991
0.17408156 -0.041763004 0.21867599
0.17649442 -0.039955217 0.21859899
0.080204561 -0.058048315 0.22200578
0.082278043 -0.058058891 0.22214749
0.084746093 -0.057619743 0.22284332
0.087396592 -0.057086606 0.22289799
0.090050764 -0.056575306 0.22352588
0.092570513 -0.055962041 0.22356805
0.09506733 -0.055441163 0.22348005
0.097564146 -0.054920282 0.22339202
0.10006096 -0.054399397 0.223304
0.10271382 -0.053845968 0.22321048
0.1053667 -0.053292517 0.22311698
0.1078635 -0.052771647 0.22302896
0.11036034 -0.052250765 0.22294094
0.11285713 -0.051729884 0.22285293
0.11535396 -0.051209014 0.22276491
0.11785077 -0.050688121 0.22267689
0.12050365 -0.050134689 0.22258337
0.12314649 -0.049570419 0.2224903
0.12565331 -0.049060374 0.22240184
0.12815014 -0.048539501 0.22231382
0.13064697 -0.048018605 0.22222582
0.13314378 -0.047497738 0.22213779
0.13564055 -0.046976853 0.22204977
0.13829342 -0.046423428 0.22195625
0.14094634 -0.04586998 0.22186273
0.14344315 -0.045349099 0.22177473
0.14593993 -0.044828232 0.22168671
0.14843673 -0.044307344 0.2215987
0.15093361 -0.043786455 0.22151068
0.1536658 -0.043295849 0.22122633
0.15625414 -0.042770885 0.22104299
0.15873319 -0.042304285 0.22101553
0.1612758 -0.041744117 0.2208076
0.16361281 -0.041143205 0.22011738
0.16627318 -0.040611736 0.21996939
0.16891311 -0.040061001 0.2198763
0.17141594 -0.039562803 0.21965623
0.17383456 -0.038949609 0.21892214
0.17645568 -0.038461037 0.21860974
0.1778724 -0.038054388 0.21856044
0.076882482 -0.056062892 0.22213954
0.079455882 -0.056345873 0.22232299
0.081691176 -0.055541094 0.22293752
0.084196314 -0.05497824 0.2228798
0.086848877 -0.054447755 0.22296681
0.089548059 -0.053976469 0.22361271
0.092050537 -0.053463709 0.22360259
0.094547346 -0.052942835 0.22351457
0.097044155 -0.052421954 0.22342655
0.099540986 -0.05190108 0.22333854
0.10219385 -0.051347639 0.22324502
0.10484672 -0.050794203 0.2231515
0.10734352 -0.050273333 0.22306348
0.10981996 -0.049853355 0.2229756
0.11228144 -0.049576126 0.22288735
0.11497423 -0.048797797 0.22279377
0.11729939 -0.048308704 0.22271183
0.12002137 -0.047661085 0.22261637
0.12258106 -0.04725742 0.22252533
0.12522995 -0.046648633 0.2224323
0.12763014 -0.046041165 0.22234836
0.13012698 -0.045520272 0.22226034
0.13262379 -0.044999402 0.22217232
0.13512057 -0.044478551 0.22208431
0.13777344 -0.043925103 0.22199079
0.14042637 -0.043371636 0.22189727
0.14292318 -0.042850766 0.22180925
0.14541996 -0.042329896 0.22172125
0.14791675 -0.041809026 0.22163323
0.1504136 -0.041288126 0.2215452
0.15306646 -0.040734701 0.22145168
0.15571934 -0.040181264 0.22135818
0.15821615 -0.039660387 0.22127016
0.16071299 -0.039139483 0.22118214
0.16324908 -0.038577285 0.22082897
0.16572341 -0.03797023 0.22000588
0.16836333 -0.037419494 0.2199128
0.17084797 -0.036901154 0.21982521
0.17347583 -0.036476873 0.21960844
0.17582583 -0.0359606 0.21883269
0.17786941 -0.035070319 0.21857914
0.074395418 -0.053575352 0.22224587
0.076246716 -0.054106411 0.22230002
0.07870961 -0.053528789 0.22308934
0.081194244 -0.053010449 0.22300175
0.083749391 -0.052559841 0.22356451
0.086373433 -0.052028377 0.22370782
0.089020312 -0.051468048 0.22353818
0.091530561 -0.050965402 0.22363712
0.094027378 -0.050444525 0.2235491
0.096531115 -0.049906425 0.22346094
0.099021003 -0.049402762 0.22337307
0.10167387 -0.048849329 0.22327955
0.10432675 -0.048295885 0.22318603
0.10682355 -0.047775012 0.22309802
0.1092547 -0.046856236 0.22301489
0.11179073 -0.046281785 0.22292577
0.1143412 -0.04615061 0.22283337
0.11595674 -0.046051756 0.22277497
0.12062748 -0.046035737 0.22260439
0.12570348 -0.044868175 0.22242612
0.1273922 -0.043946374 0.22237009
0.12965192 -0.043373872 0.22229104
0.13217753 -0.042950649 0.22220138
0.13474454 -0.042671718 0.2221093
0.13732557 -0.041915324 0.22201966
0.14011815 -0.041075278 0.22192281
0.14251053 -0.040332928 0.22183998
0.14495143 -0.039906461 0.22175343
0.14739677 -0.03931072 0.22166775
0.14989364 -0.03878982 0.22157975
0.15254647 -0.038236395 0.22148623
0.15519936 -0.03768295 0.22139271
0.15769617 -0.037162077 0.22130468
0.16019303 -0.036641184 0.22121666
0.16273469 -0.036137477 0.22102392
0.16517565 -0.035570249 0.22048876
0.16772661 -0.034914665 0.22014353
0.17033054 -0.034415029 0.21985957
0.17281516 -0.033896688 0.21977198
0.17533046 -0.033413097 0.21900432
0.17792429 -0.03288085 0.21859074
0.17946735 -0.032046467 0.21853954
0.073810101 -0.051717721 0.22227883
0.075700432 -0.051483769 0.22241446
0.078192174 -0.051042661 0.2231237
0.080676809 -0.050524328 0.22303611
0.083190173 -0.05005946 0.22354117
0.085857868 -0.049536865 0.22379775
0.088541791 -0.048975192 0.22374259
0.09102945 -0.048519243 0.22367063
0.093507394 -0.047946207 0.22358364
0.09600421 -0.047425333 0.22349562
0.098440491 -0.047018204 0.2234091
0.10135522 -0.046535943 0.22330558
0.10380676 -0.045797575 0.22322057
0.10635731 -0.04570657 0.22312793
0.10885391 -0.044982772 0.22304116
0.11129747 -0.04462738 0.22295406
0.11372802 -0.044402797 0.22286665
0.12237907 -0.040891208 0.22257234
0.12414026 -0.040903948 0.22250785
0.12590258 -0.040683713 0.22244482
0.14008854 -0.039206091 0.2219356
0.14218569 -0.037946884 0.22186668
0.14438879 -0.037197102 0.22179084
0.1468768 -0.036812387 0.22170229
0.14937367 -0.036291506 0.22161427
0.15202649 -0.03573807 0.22152075
0.15467936 -0.035184644 0.22142723
0.1571762 -0.034663752 0.22133923
0.15967304 -0.034142863 0.2212512
0.16216987 -0.033621989 0.22116318
0.16466665 -0.033101115 0.22107518
0.16719246 -0.032617599 0.22072862
0.16985175 -0.031950414 0.22055463
0.17224921 -0.031388622 0.21985304
0.17485143 -0.03092929 0.21959996
0.1772376 -0.030242529 0.2188324
0.17965375 -0.029628206 0.21854775
0.070712879 -0.049051806 0.22240856
0.07288003 -0.049396679 0.22236727
0.075188771 -0.049052779 0.22299564
0.077641748 -0.048573866 0.22315913
0.079973914 -0.048462618 0.22307444
0.082720272 -0.047437709 0.2231807
0.085308731 -0.046918377 0.22328131
0.087704152 -0.046411742 0.22380526
0.090545878 -0.046038702 0.22370382
0.093063295 -0.045338258 0.22361608
0.095451742 -0.044770867 0.2235323
0.097324356 -0.044380203 0.22346631
0.1017739 -0.044375185 0.22330379
0.10242192 -0.044620156 0.22327857
0.12165853 -0.039385121 0.22260799
0.12351019 -0.038906369 0.22241823
0.1255049 -0.038618211 0.22247218
0.14164284 -0.035134576 0.22190401
0.14382753 -0.034678809 0.22182699
0.14632432 -0.034157936 0.22173898
0.14882116 -0.033637051 0.22165096
0.151474 -0.033083621 0.22155745
0.15412691 -0.032530174 0.22146392
0.15662374 -0.032009285 0.22137591
0.15912057 -0.031488411 0.22128789
0.16161738 -0.03096753 0.22119987
0.16411418 -0.030446649 0.22111186
0.16661096 -0.029925779 0.22102384
0.16926378 -0.029372353 0.22093034
0.17166463 -0.028922722 0.22000721
0.17426492 -0.028406087 0.21975312
0.17690577 -0.027873922 0.21948875
0.17935154 -0.027237918 0.21877968
0.18157929 -0.026460871 0.21849705
0.18342596 -0.025537841 0.21843529
0.069999605 -0.047454029 0.22244459
0.072148263 -0.047128044 0.2227266
0.074640319 -0.046433356 0.22328219
0.07712581 -0.045917608 0.22323625
0.079593137 -0.045379329 0.22322538
0.082106553 -0.044840299 0.22301918
0.084714383 -0.044281077 0.22316127
0.087388419 -0.043779943 0.22383316
0.089703545 -0.042969514 0.22375359
0.092536539 -0.042587787 0.22365242
0.094899267 -0.0421164 0.22356899
0.096713364 -0.041687384 0.22350538
0.1183113 -0.036471914 0.22274846
0.12024736 -0.03638611 0.22267824
0.12294901 -0.036619321 0.22257802
0.12470275 -0.036930718 0.22251202
0.1392113 -0.032057498 0.22201206
0.1408895 -0.032461997 0.22194815
0.14327505 -0.032024346 0.22186369
0.14577185 -0.031503469 0.22177567
0.14826871 -0.030982584 0.22168764
0.15092155 -0.030429151 0.22159413
0.15357444 -0.029875718 0.22150062
0.15607125 -0.029354833 0.2214126
0.15856808 -0.028833956 0.22132458
0.16106491 -0.028313059 0.22123656
0.1635617 -0.027792197 0.22114855
0.16605847 -0.027271323 0.22106053
0.16871132 -0.026717886 0.22096702
0.17126991 -0.026267976 0.22024317
0.17371514 -0.025764573 0.21978965
0.17635509 -0.025213834 0.21969661
0.17901281 -0.024677776 0.21949603
0.18125783 -0.024305057 0.21856701
0.18330117 -0.023853727 0.21845032
0.067218378 -0.044037294 0.22256744
0.06899529 -0.044748761 0.22251569
0.071552433 -0.044073023 0.22324584
0.074090898 -0.043795142 0.22338115
0.076585919 -0.04331173 0.22393386
0.079123706 -0.042824432 0.22401209
0.0815451 -0.042237513 0.2230715
0.084214069 -0.041704498 0.22366616
0.086167112 -0.041276988 0.22389337
0.08867684 -0.041948192 0.22379753
0.092926636 -0.040931266 0.22364853
0.094473749 -0.040613528 0.22359395
0.096380882 -0.039723594 0.22352974
0.10028805 -0.03810915 0.22339699
0.10111625 -0.037651449 0.22336961
0.11562828 -0.034533471 0.22285859
0.11737712 -0.034767617 0.22279315
0.11963089 -0.034565918 0.22271204
0.12220343 -0.034831751 0.22261645
0.14090005 -0.031006947 0.22195689
0.14307818 -0.029649884 0.22188564
0.14525187 -0.029005155 0.22181019
0.14774986 -0.028502136 0.22172202
0.15040156 -0.027930833 0.22162867
0.15305445 -0.027377404 0.22153515
0.15555127 -0.026856516 0.22144713
0.15804809 -0.026335631 0.22135912
0.16054493 -0.025814753 0.2212711
0.16304173 -0.025293875 0.22118308
0.1655385 -0.024773005 0.22109507
0.16819134 -0.024219573 0.22100155
0.17070851 -0.023658616 0.22030167
0.17316537 -0.023123058 0.21982613
0.17580532 -0.02257232 0.2197331
0.17851619 -0.022096038 0.21949603
0.18071154 -0.021613874 0.21865109
0.18269064 -0.02122266 0.21848898
0.064231023 -0.042079151 0.22268878
0.066091739 -0.042497646 0.22261821
0.068462282 -0.042348839 0.22304687
0.071088322 -0.04182471 0.22345625
0.073573798 -0.041331347 0.22393122
0.076015167 -0.04092798 0.22426656
0.07866478 -0.040336177 0.2241734
0.081060901 -0.039786514 0.22402671
0.083416119 -0.039650779 0.224004
0.085660048 -0.039970756 0.22392008
0.11532279 -0.033065714 0.22287889
0.11682138 -0.032396559 0.22282819
0.11888724 -0.032071933 0.22275473
0.14285952 -0.026923731 0.22191058
0.14463644 -0.02676788 0.2218466
0.14644626 -0.027181052 0.22177795
0.1505475 -0.025958877 0.22163561
0.15258631 -0.02521145 0.22156572
0.15514949 -0.02452061 0.22147633
0.15752813 -0.023837313 0.22139364
0.16002496 -0.023316436 0.22130562
0.16252175 -0.022795562 0.22121762
0.16501853 -0.022274688 0.2211296
0.16767138 -0.021721255 0.22103608
0.1703077 -0.021193994 0.2208066
0.172729 -0.020610783 0.22028646
0.17528786 -0.020086186 0.21976747
0.17792781 -0.019535448 0.21967438
0.18035679 -0.019039789 0.21924557
0.18274958 -0.018415272 0.21856067
0.18469526 -0.017468015 0.21843907
0.063698038 -0.040447924 0.22271845
0.065326214 -0.040403262 0.2228156
0.067932919 -0.039886173 0.2235124
0.070568129 -0.039347883 0.22374074
0.073052853 -0.038853142 0.22437209
0.075474098 -0.038283292 0.22430277
0.078096487 -0.037721302 0.22421041
0.08054316 -0.037290968 0.22412367
0.082218349 -0.036734134 0.22406594
0.15555975 -0.022007745 0.22147705
0.15735921 -0.021553278 0.22141403
0.15950498 -0.020818122 0.22134016
0.16200177 -0.020297246 0.22125214
0.16449855 -0.019776372 0.22116412
0.16715139 -0.019222941 0.22107062
0.16980428 -0.018669503 0.2209771
0.17230596 -0.018108126 0.22078462
0.17470762 -0.017647073 0.21986881
0.17741038 -0.01704932 0.21970874
0.17989501 -0.016530976 0.21962115
0.1823411 -0.01599904 0.21888451
0.18458617 -0.015476811 0.21845543
0.062970594 -0.038272291 0.22275856
0.064787179 -0.03794463 0.22341353
0.067413658 -0.037402522 0.22360243
0.070087761 -0.036989689 0.22352505
0.072534263 -0.03635139 0.2242659
0.075010464 -0.035843652 0.22433488
0.077526361 -0.035313532 0.22424622
0.080023184 -0.03479265 0.2241582
0.082559511 -0.034160756 0.22406943
0.084300324 -0.033281248 0.22401135
0.15466338 -0.018770931 0.22152987
0.15648216 -0.018666949 0.22146401
0.15868297 -0.01829854 0.22138588
0.16164528 -0.017773708 0.22128086
0.16396071 -0.017279197 0.2211993
0.16663142 -0.016724626 0.22110514
0.16928431 -0.016171187 0.22101162
0.17174248 -0.01564949 0.22052209
0.17427278 -0.01514223 0.2198353
0.17689292 -0.014563191 0.2197431
0.17935944 -0.014072554 0.21965599
0.18187834 -0.01351146 0.219017
0.18426709 -0.01291768 0.218483
0.18577451 -0.011721619 0.21843529
0.062087975 -0.035563011 0.22280765
0.064251766 -0.035302315 0.22316115
0.06686388 -0.034761012 0.22363895
0.069529846 -0.034120534 0.22429086
0.07201276 -0.033856977 0.22445679
0.074509576 -0.033336099 0.22436877
0.076988555 -0.032855727 0.22428115
0.079574496 -0.032313172 0.22419001
0.082136549 -0.031929266 0.22409876
0.084191173 -0.032130964 0.22402249
0.15425067 -0.017142903 0.22155507
0.1559682 -0.016342368 0.22149724
0.15846503 -0.01582149 0.22140922
0.16096181 -0.015300614 0.22132121
0.16345859 -0.014779741 0.22123319
0.16611144 -0.01422631 0.22113967
0.16876432 -0.013672871 0.22104615
0.17126113 -0.013151992 0.22095814
0.17369445 -0.012520367 0.22007971
0.17625694 -0.011974585 0.21978244
0.17885627 -0.011406666 0.21969099
0.18136832 -0.010870029 0.21912436
0.1838752 -0.010343168 0.21851332
0.18542477 -0.010557683 0.21845533
0.061951872 -0.033452637 0.22282574
0.063703865 -0.032667506 0.22318879
0.066313289 -0.032119628 0.22370328
0.068968222 -0.031724263 0.22440065
0.071469739 -0.031200543 0.22449315
0.073831379 -0.030785449 0.2244094
0.07609266 -0.030598175 0.22432801
0.079593301 -0.029786728 0.22420505
0.08067894 -0.029963624 0.22416432
0.15570448 -0.013597498 0.22152394
0.15786564 -0.013134316 0.22144783
0.1604635 -0.012906397 0.22135429
0.16290611 -0.012125282 0.22126988
0.16555895 -0.011571853 0.22117637
0.16821185 -0.011018414 0.22108285
0.17070866 -0.010497537 0.22099483
0.17310287 -0.0098928576 0.2201879
0.17579338 -0.0092801666 0.21981612
0.17827801 -0.008761825 0.21972853
0.18087399 -0.0082223518 0.21926172
0.18332812 -0.0077146036 0.21854965
0.18518275 -0.0071039069 0.21848567
0.061392184 -0.030210175 0.22286634
0.063172258 -0.030185804 0.2235208
0.065796658 -0.029633373 0.22370981
0.068421058 -0.029073112 0.22427389
0.070907809 -0.028548058 0.22453016
0.073404625 -0.028027177 0.22444214
0.075901441 -0.027506296 0.22435413
0.077991769 -0.027094901 0.2242803
0.079965204 -0.027473144 0.22420588
0.15501928 -0.011000899 0.22156511
0.15736008 -0.010512566 0.2214826
0.15976772 -0.009974394 0.22139795
0.1624178 -0.0094139893 0.22130458
0.16500649 -0.0089173885 0.22121306
0.16765937 -0.0083639501 0.22111954
0.17013091 -0.0078388555 0.22069433
0.17256638 -0.0074302168 0.21998972
0.17534472 -0.0068391371 0.21984768
0.1777242 -0.0063178414 0.21976395
0.18034813 -0.0057657077 0.21920958
0.18281321 -0.005240662 0.21858384
0.1848768 -0.0047238665 0.21851164
0.060491085 -0.028040159 0.22291276
0.062751353 -0.027590923 0.2233772
0.065182954 -0.027268652 0.22374691
0.068087049 -0.026658442 0.2245506
0.07038784 -0.026049744 0.22456469
0.072884642 -0.025528856 0.22447668
0.075381458 -0.025007978 0.22438866
0.077833541 -0.024256833 0.22430371
0.079717889 -0.023718823 0.22423822
0.15463288 -0.0085901245 0.22159421
0.1568401 -0.0080142478 0.22151713
0.15933689 -0.0074933777 0.22142911
0.16180325 -0.0069381217 0.22134243
0.16448651 -0.0064190729 0.22124758
0.1671394 -0.0058656354 0.22115406
0.16963622 -0.0053447522 0.22106604
0.17216423 -0.0048622247 0.22045082
0.17471933 -0.0042805499 0.21991678
0.17724314 -0.0037895613 0.21979725
0.17983228 -0.003356623 0.21930224
0.18229832 -0.0027667219 0.21861804
0.1843245 -0.0024713916 0.21854582
0.058040179 -0.025393344 0.22301878
0.059760213 -0.025715899 0.22297062
0.062115081 -0.025270652 0.22340439
0.064731941 -0.024635736 0.22411796
0.067384765 -0.024051338 0.22468686
0.069867849 -0.023551429 0.22459923
0.072364673 -0.023030549 0.22451121
0.074861482 -0.022509666 0.22442318
0.077343538 -0.022004798 0.22433561
0.079472482 -0.02173572 0.2242595
0.15487586 -0.0064870389 0.22159851
0.15632012 -0.0055159396 0.22155166
0.15882447 -0.0050442363 0.22146307
0.1613137 -0.0044741882 0.22137563
0.16396654 -0.0039207586 0.22128211
0.16661942 -0.0033673202 0.22118859
0.16913018 -0.002825621 0.22088583
0.17152736 -0.0023975302 0.22058399
0.17411916 -0.0018296856 0.22031131
0.1767257 -0.0013034358 0.21983163
0.17933497 -0.00083179586 0.2196141
0.18165958 -0.00024541654 0.21878214
0.18363942 0.00013475399 0.21858706
0.057778329 -0.02393603 0.22303741
0.059134126 -0.023143955 0.22319014
0.061604407 -0.022725718 0.22390594
0.064220294 -0.022147968 0.22436975
0.066851065 -0.021573994 0.22472177
0.069347881 -0.021053109 0.22463375
0.07184469 -0.020532224 0.22454573
0.074341506 -0.020011354 0.22445773
0.076838329 -0.019490473 0.2243697
0.079311863 -0.019218832 0.224281
0.081149198 -0.019079916 0.22421478
0.15413231 -0.0036099521 0.22164354
0.15581904 -0.0030214395 0.22158548
0.1582896 -0.0024614921 0.22149867
0.16079372 -0.001975874 0.22141016
0.16344658 -0.0014224444 0.22131665
0.16609946 -0.00086900266 0.22122313
0.16858971 -0.00036924612 0.22078785
0.17100155 0.00016335677 0.22007981
0.17380837 0.00065467227 0.22038342
0.17622747 0.0011793366 0.22000167
0.17880045 0.0018247096 0.21965188
0.18114319 0.0022433754 0.21881497
0.1835165 0.0028484957 0.21860841
0.057381883 -0.021566443 0.2230666
0.058687359 -0.020543035 0.22312213
0.061054636 -0.020084217 0.22394247
0.063642763 -0.019587435 0.2244565
0.066331089 -0.019075681 0.2247563
0.068827905 -0.018554792 0.22466828
0.071324714 -0.018033912 0.22458027
0.07382153 -0.017513035 0.22449225
0.076260254 -0.017025992 0.22440615
0.078520313 -0.015929006 0.22433041
0.080304235 -0.015020156 0.2242709
0.14849851 -0.0007936121 0.22186695
0.1509465 -0.0013419292 0.22177403
0.1526867 -0.00095360586 0.22171281
0.15528017 -0.00051930826 0.22162072
0.15777695 1.5683472e-06 0.2215327
0.16027373 0.00052243937 0.2214447
0.16292658 0.0010758759 0.22135118
0.16561763 0.0016559176 0.22121166
0.16787054 0.0020945203 0.22035702
0.17077994 0.0027273363 0.22058107
0.17313975 0.0033050524 0.22001839
0.17565848 0.0038241912 0.21990253
0.17824546 0.0043477779 0.21969867
0.18056557 0.0049735019 0.21884069
0.1828002 0.0052030683 0.21864921
0.056452878 -0.017619319 0.2231251
0.058094412 -0.017992966 0.2232852
0.060504854 -0.017442703 0.22397895
0.063175082 -0.01693075 0.22448222
0.065778613 -0.016421214 0.22479299
0.068275429 -0.015900332 0.22470498
0.070772246 -0.015379456 0.22461696
0.073269054 -0.014858574 0.22452894
0.075514823 -0.014814657 0.22444715
0.078564465 -0.014525604 0.22433749
0.080457456 -0.014191671 0.22427046
0.14817998 -4.544016e-05 0.22188324
0.15009251 0.00037682522 0.22181597
0.15223089 0.0016142707 0.22174543
0.1547277 0.0021351511 0.22165741
0.15722063 0.0026414562 0.22156945
0.15972127 0.0031769043 0.22148138
0.16237411 0.0037303269 0.22138788
0.16502699 0.0042837728 0.22129434
0.16750848 0.0048781279 0.22120735
0.17020078 0.0053626588 0.22092797
0.17260161 0.0059615392 0.22004288
0.1751087 0.0064657163 0.21993901
0.17754464 0.0069148745 0.21915218
0.18017434 0.0074382937 0.21875909
0.18198507 0.0080349976 0.21869662
0.056036651 -0.015877692 0.22315116
0.057570376 -0.015542928 0.22325358
0.059988551 -0.01495792 0.22399762
0.062609389 -0.014374763 0.22428238
0.065226138 -0.013766754 0.22482967
0.067722954 -0.013245872 0.22474167
0.070225403 -0.012778135 0.22465311
0.072716586 -0.012204114 0.22456563
0.075213395 -0.01168324 0.22447762
0.077146225 -0.011001464 0.22441123
0.15016501 0.0039122803 0.2218353
0.15171593 0.0042397641 0.22178057
0.15417522 0.0047896104 0.2216941
0.156672 0.0053104935 0.22160609
0.15916878 0.0058313617 0.22151807
0.16182163 0.0063847899 0.22142455
0.16447452 0.0069382247 0.22133103
0.16696423 0.0074560391 0.22122763
0.16949996 0.008013186 0.22112374
0.17195106 0.0084005622 0.22032298
0.17459126 0.0089518568 0.21997337
0.17718765 0.0094563561 0.21949381
0.17965944 0.0099122273 0.21879329
0.18209702 0.010420772 0.21870735
0.18361922 0.01025431 0.21865064
0.055594534 -0.013574719 0.22318164
0.057034858 -0.012926747 0.22313301
0.059451725 -0.012442257 0.22356281
0.062102098 -0.011905039 0.22410788
0.064706154 -0.01126844 0.22486421
0.067202978 -0.010747558 0.22477619
0.069699794 -0.010226677 0.22468817
0.072196603 -0.0097057968 0.22460017
0.074645348 -0.0091976169 0.22451383
0.076808169 -0.0097620236 0.22443137
0.15138803 0.0068756463 0.22180893
0.15363532 0.0072967 0.22172941
0.15622136 0.0078867758 0.22163858
0.15864882 0.0083296774 0.2215526
0.16130166 0.0088831065 0.22145909
0.16395454 0.0094365506 0.22136557
0.16616611 0.0098487576 0.22049285
0.16915742 0.010473638 0.22102238
0.17147303 0.010899344 0.22019809
0.17407382 0.011437981 0.22000773
0.17664312 0.011930973 0.21984439
0.17896011 0.012547971 0.21897817
0.18120353 0.01256474 0.21875334
0.056989513 -0.010591464 0.2231492
0.059142172 -0.0099031562 0.2236442
0.061556984 -0.0094050197 0.22396344
0.064188637 -0.0087755304 0.22485173
0.066682994 -0.0082492325 0.22481072
0.069179811 -0.0077283652 0.22472271
0.071676627 -0.0072074737 0.22463469
0.074088037 -0.0067403354 0.22454947
0.084644496 -0.0041111349 0.22418006
0.14650965 0.0095444983 0.22200389
0.14831588 0.0088999094 0.2219338
0.15063845 0.0092653567 0.22185118
0.15313527 0.0097862436 0.22176316
0.15563205 0.010307127 0.22167514
0.15812883 0.010827997 0.22158714
0.16075698 0.011343683 0.22149429
0.16347212 0.011905917 0.22139855
0.16581227 0.012344598 0.2208977
0.16861351 0.013074447 0.22103727
0.17104557 0.013426443 0.22021413
0.17359065 0.01399524 0.21998243
0.17603146 0.014522062 0.21934314
0.17853278 0.015149291 0.21888265
0.056420878 -0.0076119122 0.22318849
0.058471076 -0.0072452058 0.22313225
0.061072972 -0.0067716604 0.22388519
0.06365896 -0.0062289434 0.22420108
0.066163026 -0.0057509253 0.22484526
0.068659842 -0.0052300435 0.22475724
0.071147881 -0.0047290949 0.22466943
0.07365346 -0.0041882801 0.22458121
0.075237535 -0.0031935908 0.22452956
0.079389006 -0.0020882608 0.22438471
0.080261871 -0.0017778007 0.22435473
0.14564557 0.010993478 0.22204441
0.14762163 0.0112428 0.22197373
0.15011847 0.011763682 0.22188571
0.15261529 0.012284565 0.22179769
0.15511209 0.012805442 0.22170968
0.15760887 0.013326316 0.22162166
0.16015038 0.013940449 0.2215326
0.16298173 0.014521749 0.22143273
0.16541891 0.015123003 0.22114439
0.1679481 0.015543888 0.22065274
0.1704855 0.016020536 0.22018375
0.17303644 0.016558595 0.21994753
0.17538977 0.01711823 0.21902117
0.17805037 0.017643288 0.21890014
0.17953768 0.017469577 0.21884467
0.056110397 -0.0053862901 0.22321367
0.057916827 -0.0048095994 0.22333887
0.060492899 -0.0041505517 0.22406203
0.06318593 -0.003709123 0.22401895
0.065663993 -0.0032663452 0.22487894
0.068139866 -0.0027317428 0.22479177
