# .PCD v0.7 - Point Cloud Data file format
VERSION 0.7
FIELDS x y z
SIZE 4 4 4
TYPE F F F
COUNT 1 1 1
WIDTH 1373
HEIGHT 1
VIEWPOINT 0 0 0 1 0 0 0
POINTS 1373
DATA ascii
0.091025829 -0.063066475 0.21776457
0.090506881 -0.064974479 0.21705116
0.089938916 -0.067303799 0.21588394
0.12991826 0.075137511 0.21322508
0.12920669 0.072729424 0.21468264
0.093738101 -0.063640326 0.21786928
0.093172148 -0.065632761 0.21755829
0.092677869 -0.068096898 0.21612202
0.092521183 -0.069798589 0.21600258
0.13296393 0.075974077 0.21318464
0.1324219 0.074556291 0.21330726
0.13164757 0.072129965 0.2147093
0.096158385 -0.064130716 0.21796212
0.095571123 -0.066258058 0.21741252
0.095074818 -0.068822831 0.21609385
0.094891757 -0.070527561 0.21610054
0.13593592 0.075322069 0.21330006
0.1349507 0.073879912 0.21348709
0.13423188 0.071685374 0.21491164
0.098140113 -0.065159433 0.21805605
0.09809912 -0.066969216 0.21771277
0.097607471 -0.06939435 0.2165827
0.09649469 -0.070829898 0.21616143
0.13777095 0.074885577 0.21337226
0.13740572 0.073245399 0.21398647
0.13663843 0.070765093 0.21537289
0.1368735 0.069218844 0.2155057
0.10147338 -0.065954909 0.21818732
0.10065684 -0.067601837 0.21791643
0.1001085 -0.070177086 0.2169566
0.10036886 -0.071835421 0.2163163
0.13944675 0.074397579 0.21344079
0.13983166 0.072604202 0.21383789
0.13922979 0.070298769 0.21533288
0.10370801 -0.066197358 0.21826696
0.10315882 -0.068196446 0.21784298
0.10248321 -0.070863448 0.21692811
0.10141191 -0.072106153 0.21635801
0.14339527 0.073357597 0.21359909
0.14241935 0.071926303 0.21380247
0.14176087 0.069508895 0.21516274
0.14234757 0.067717694 0.21572681
0.10761613 -0.065175615 0.21836551
0.10647167 -0.066689208 0.21822423
0.10563727 -0.068753056 0.21749038
0.10502764 -0.071346402 0.21702155
0.14504455 0.072884075 0.2136663
0.14494373 0.071333937 0.21389702
0.14423931 0.068781279 0.21493819
0.14387517 0.067053318 0.21579547
0.10937419 -0.065417625 0.21842968
0.10887911 -0.067238241 0.21829616
0.10825547 -0.069494531 0.21753754
0.10763434 -0.071708351 0.21690062
0.14729846 0.070469297 0.21395129
0.14675654 0.06819433 0.2151942
0.14630607 0.066144601 0.21590047
0.11117908 -0.066014647 0.21850552
0.11135223 -0.06782084 0.21809773
0.1107499 -0.070252478 0.21726575
0.11026048 -0.071958639 0.21672574
0.14981309 0.06943275 0.2139197
0.14930061 0.067458712 0.21516536
0.14869943 0.065360934 0.21600072
0.11501525 -0.067203194 0.21866433
0.11398283 -0.068438575 0.21802381
0.11332672 -0.070780568 0.21689957
0.11303449 -0.072426818 0.21674609
0.15223427 0.068564326 0.21402329
0.15175287 0.066757768 0.21470822
0.15140842 0.064425342 0.21588817
0.11686058 -0.067521423 0.21873356
0.11641885 -0.06902355 0.21763699
0.11571935 -0.071440443 0.21680564
0.11504442 -0.073116995 0.21683122
0.15402037 0.067644566 0.21410769
0.15412556 0.066007785 0.21451406
0.15365097 0.063718654 0.21570843
0.15355447 0.062246069 0.21624757
0.1185529 -0.068057068 0.21880393
0.11878638 -0.069914632 0.21811087
0.11848725 -0.071286559 0.21689156
0.15672264 0.065192729 0.21426535
0.1561079 0.063071541 0.21517485
0.15582842 0.060930356 0.21605437
0.1235234 -0.066410944 0.21891931
0.12361955 -0.066864535 0.21893531
0.12072317 -0.069863446 0.218926
0.15934816 0.064553499 0.2143691
0.15867594 0.062389143 0.21513441
0.15799651 0.060012966 0.21570131
0.16326398 0.069240957 0.21616201
0.16257775 0.066545561 0.21486282
0.16181843 0.064208649 0.21485376
0.16123649 0.061627597 0.21497138
0.16066433 0.059226632 0.21559656
0.16026054 0.056959152 0.21640323
0.16445936 0.068166174 0.21543424
0.16422738 0.066244312 0.21548125
0.16403097 0.06358888 0.21541215
0.16352125 0.061028041 0.21477784
0.16289303 0.058585361 0.21570688
0.16233084 0.056070872 0.21615006
0.16234004 0.054484367 0.21675435
0.16519736 0.061083555 0.21465836
0.16555205 0.057387218 0.21677659
0.16484883 0.055278882 0.21681349
0.16446134 0.053745933 0.21684447
0.1677134 0.056645535 0.21686816
0.16734502 0.054676838 0.21691196
0.16712686 0.052500568 0.21696664
0.13760787 -0.063744016 0.21930292
0.16903275 0.055728339 0.21693727
0.16963688 0.053964116 0.21700694
0.16901752 0.051694676 0.21705112
0.16913506 0.04974363 0.2171104
0.13902216 -0.063890539 0.21928163
0.17430459 0.057367176 0.21506082
0.17400084 0.056224421 0.21508332
0.17195836 0.049780734 0.2151996
0.17130472 0.048378758 0.21655259
0.17168431 0.046574421 0.21728352
0.14181527 -0.065619938 0.21785547
0.1417788 -0.066753574 0.21752246
0.17549081 0.056780815 0.21511614
0.17551704 0.055728793 0.21514681
0.17357415 0.049265884 0.21526691
0.17357497 0.047632031 0.21584083
0.17324249 0.045605339 0.21721162
0.14623061 -0.058829017 0.21944466
0.14584267 -0.060484536 0.21943122
0.14531513 -0.063065358 0.21890394
0.14435108 -0.065512493 0.21780574
0.14318478 -0.067055948 0.21757689
0.17595777 0.046768986 0.21569517
0.17556751 0.044544064 0.21692981
0.17536576 0.042189769 0.21752791
0.17521188 0.040039614 0.21758403
0.14878027 -0.058990888 0.21943541
0.14790682 -0.061086148 0.21888143
0.14732727 -0.063880712 0.21831924
0.14642701 -0.065414049 0.21767604
0.17778355 0.04588183 0.21550021
0.17770045 0.043802194 0.21595688
0.17742166 0.041516669 0.21670285
0.17685425 0.039033756 0.21745458
0.17690161 0.037106693 0.21772236
0.15223174 -0.057359293 0.21959865
0.15122087 -0.059173234 0.21901442
0.15053612 -0.061712474 0.21815965
0.14953385 -0.064012378 0.21782497
0.14845802 -0.065538973 0.21770585
0.17956504 0.042459555 0.21565542
0.17976364 0.040639952 0.21585861
0.17929818 0.038224891 0.21684659
0.17895864 0.03572765 0.21777576
0.17889735 0.033682607 0.21788462
0.15692638 -0.051012225 0.21957161
0.15610817 -0.052259266 0.2195802
0.15562397 -0.055375844 0.21962163
0.15441874 -0.057412893 0.21908331
0.1536783 -0.059870578 0.21821566
0.15265815 -0.06192258 0.21774013
0.18140262 0.039531961 0.21579845
0.18150377 0.037217014 0.21614426
0.18112323 0.035118543 0.21688689
0.18062802 0.032507941 0.21778268
0.18066067 0.030340536 0.21803692
0.15891595 -0.05095838 0.21963489
0.15823457 -0.05302345 0.2196712
0.15757161 -0.055588834 0.21927337
0.15696001 -0.057959296 0.21829177
0.15625446 -0.059971802 0.21780205
0.1829655 0.036049739 0.21594822
0.18339071 0.034156427 0.21605216
0.1830315 0.031987011 0.2166304
0.18230239 0.029512839 0.21781097
0.18238854 0.027118584 0.21818474
0.1823149 0.02527648 0.21823458
0.16240115 -0.04936301 0.21970336
0.16147543 -0.051181287 0.21926133
0.1606358 -0.05370228 0.21886818
0.1600339 -0.056134835 0.21824394
0.15900844 -0.05837065 0.21786919
0.15807325 -0.059971772 0.21786141
0.18494031 0.033044085 0.21609792
0.18500158 0.031090831 0.2162635
0.18477927 0.028729726 0.21711604
0.18419382 0.026265703 0.21755831
0.18374619 0.023771569 0.21808368
0.18380585 0.021513952 0.21839002
0.16754474 -0.038728818 0.21885806
0.16597678 -0.047398321 0.21962121
0.16458273 -0.049335152 0.21930134
0.16388249 -0.051807448 0.21853556
0.16306673 -0.054038502 0.21807142
0.16206607 -0.05604063 0.21788003
0.18657494 0.027591195 0.21630594
0.18635865 0.025560802 0.21652031
0.18599479 0.023044392 0.21711195
0.18543392 0.020457305 0.21812548
0.18524334 0.018103302 0.21850915
0.18512794 0.01591992 0.21859188
0.16947685 -0.039742552 0.21924897
0.17001027 -0.042148881 0.21974678
0.16881759 -0.045293182 0.21943955
0.16770092 -0.047371261 0.21881872
0.16691165 -0.049957462 0.21815841
0.16584751 -0.052013107 0.21792355
0.16493288 -0.053583294 0.21790381
0.18772937 0.024204368 0.21643972
0.18796831 0.022189986 0.2166111
0.1878981 0.019849489 0.2170818
0.18727869 0.017413307 0.21750495
0.18669486 0.014876495 0.21814458
0.18619958 0.012246282 0.21846308
0.1859013 0.010010027 0.21875137
0.18580301 0.0078148097 0.21884388
0.18463838 0.0040271142 0.21891339
0.18458785 0.0031472193 0.21893671
0.17968801 -0.015673695 0.21931103
0.17580731 -0.030579867 0.21960749
0.17416097 -0.036903702 0.21973327
0.17340955 -0.038591869 0.21966568
0.17243877 -0.040663637 0.21947178
0.17155209 -0.043003216 0.21888103
0.17069545 -0.045459583 0.21821706
0.16970246 -0.047828965 0.21793862
0.16868751 -0.049783781 0.2179184
0.18929917 0.018886525 0.21664184
0.1890742 0.016614739 0.21669891
0.18883619 0.014093319 0.21694624
0.18850452 0.011657365 0.21739498
0.18774426 0.0092418417 0.21806596
0.18718357 0.0066336505 0.21883892
0.18653765 0.0039823372 0.21897647
0.18617287 0.0016725266 0.21897838
0.18533063 -0.0010086384 0.21906425
0.18500346 -0.0033230111 0.21913378
0.18471679 -0.0061253705 0.21920405
0.18367046 -0.0080915969 0.21922565
0.18252736 -0.014642488 0.21937436
0.18134344 -0.016016088 0.21937461
0.18125987 -0.018316491 0.21943723
0.18141724 -0.020141045 0.21949419
0.18000239 -0.024106182 0.21956059
0.17924096 -0.026231755 0.219596
0.17840736 -0.028893692 0.21957017
0.17754622 -0.03114629 0.2195273
0.17725591 -0.033413224 0.21902016
0.17626835 -0.036406443 0.21854064
0.1752314 -0.038625397 0.21865934
0.17458184 -0.041147523 0.21833666
0.173902 -0.043533593 0.21792893
0.173006 -0.045317262 0.21793248
0.18982719 0.010701848 0.21689129
0.18977463 0.0083820168 0.21705353
0.18943161 0.005968025 0.21772359
0.18910271 0.0034921435 0.21798524
0.18849704 0.00091421226 0.21801412
0.18766561 -0.001522196 0.21828422
0.18706292 -0.0040762862 0.21876866
0.18641448 -0.006518119 0.21890396
0.18595874 -0.0089820651 0.21918252
0.18572512 -0.011707882 0.21933642
0.18463655 -0.014174704 0.21942979
0.18380171 -0.016613444 0.2194276
0.18315718 -0.019163869 0.21934909
0.18248048 -0.02162057 0.21914376
0.18171674 -0.024174131 0.2190322
0.18123761 -0.026754236 0.21878108
0.1805236 -0.029416064 0.21856265
0.17993993 -0.031832285 0.21843518
0.17915882 -0.034196071 0.21817081
0.17820318 -0.036468543 0.21786839
0.17701349 -0.038577512 0.2178719
0.19089851 0.0046040425 0.21709929
0.19072518 0.0028224499 0.21714416
0.19036871 0.00028736005 0.21725331
0.18984739 -0.0021965478 0.21740519
0.18933149 -0.0046802089 0.21756904
0.18867439 -0.0072085783 0.21765862
0.18808219 -0.0097433841 0.2177483
0.18743026 -0.012224642 0.21814224
0.18705767 -0.014612321 0.2178859
0.18607116 -0.017379757 0.21811174
0.18555187 -0.019797256 0.21793918
0.18491441 -0.022302793 0.21821958
0.18416956 -0.024783432 0.2181648
0.18329269 -0.027064744 0.21785641
0.18223852 -0.029604407 0.21778762
0.18147263 -0.032071948 0.2178327
0.18080874 -0.034151994 0.2178701
0.18953143 -0.010772655 0.21749111
0.18912409 -0.012599267 0.21752961
0.18846436 -0.01513331 0.21758001
0.18773997 -0.017915798 0.21763538
0.18712345 -0.020048941 0.21767578
0.18633619 -0.022696784 0.21772528
0.18583173 -0.024634583 0.21776381
0.054445282 0.029055832 0.21495835
0.053675972 0.027627626 0.21497385
0.053052627 0.025443282 0.21501553
0.052527569 0.022930222 0.21506968
0.051882185 0.020628398 0.21511394
0.051249288 0.017834086 0.21517259
0.050724126 0.015100762 0.21523301
0.050039388 0.012752508 0.21527733
0.049599729 0.010443448 0.21532851
0.048890613 0.0077196811 0.2153827
0.048457272 0.0060551637 0.21541581
0.059544358 0.038717449 0.21485046
0.058416072 0.036995232 0.21486263
0.057655036 0.034895808 0.21489742
0.057117619 0.032318301 0.21495304
0.056310609 0.029837433 0.21514434
0.055469286 0.027350383 0.21550544
0.054955803 0.024906354 0.2153064
0.054307126 0.022447603 0.21525273
0.053555325 0.019941337 0.21549094
0.052863903 0.017411895 0.21579334
0.052275151 0.014913841 0.21598399
0.051534124 0.012310001 0.21577495
0.050990038 0.009772581 0.21563646
0.050336108 0.0073443642 0.21563797
0.049857996 0.004840415 0.21566057
0.049582332 0.0023130192 0.21555875
0.049357042 -0.00013758685 0.21562088
0.063302904 0.043870218 0.21482688
0.062445994 0.041710645 0.21486023
0.061317053 0.039275549 0.21495417
0.060787838 0.036774017 0.21535479
0.059825458 0.034454323 0.21581228
0.059169862 0.031905815 0.21584477
0.058555178 0.029330337 0.2160551
0.057946604 0.026856897 0.21613577
0.056983877 0.024545645 0.21617004
0.056151077 0.021793514 0.21622103
0.055567969 0.019302716 0.21627271
0.054985665 0.016811576 0.21632437
0.054602243 0.014317828 0.21638253
0.053683475 0.011728507 0.21642615
0.053211935 0.0092031294 0.2164824
0.052804939 0.0066396222 0.21654187
0.052028142 0.0041847699 0.21657242
0.051280431 0.0016195572 0.21631855
0.050892249 -0.00082062813 0.21581055
0.050378285 -0.0033137114 0.21574447
0.050281338 -0.0063168895 0.21582645
0.049764201 -0.0084875608 0.21587117
0.049430728 -0.010675076 0.21592234
0.067863449 0.05027163 0.21479385
0.067010015 0.048466392 0.21481735
0.066090763 0.046108864 0.21506137
0.065175369 0.043769583 0.2155145
0.064497694 0.041204266 0.21584086
0.063794583 0.038637072 0.21597806
0.063206896 0.036229692 0.21581894
0.061996188 0.034052327 0.21606377
0.061726004 0.031338658 0.21613181
0.060998935 0.028547045 0.21618736
0.060225274 0.026536062 0.21621929
0.054445073 0.0077968221 0.21656258
0.054159038 0.006122699 0.21660075
0.053676419 0.0036973341 0.21665384
0.053271122 0.00096719898 0.21671815
0.052908607 -0.0013738996 0.21673344
0.052495167 -0.0041609639 0.21682392
0.051987246 -0.0066577028 0.21675731
0.051486611 -0.0090226186 0.21615109
0.05083999 -0.011635534 0.21599568
0.050776154 -0.014002323 0.21606064
0.050576359 -0.016464952 0.21612398
0.071677379 0.054307587 0.21480371
0.07075309 0.052838236 0.21481533
0.069623336 0.050589032 0.21484238
0.068975002 0.048045523 0.21529645
0.068224207 0.045737058 0.2158695
0.067314789 0.043364786 0.21597295
0.066144273 0.040801749 0.21600744
0.066325299 0.038040087 0.21609166
0.065222681 0.036242634 0.21610676
0.063436732 0.031114165 0.21619411
0.062565729 0.027768563 0.21626064
0.054265954 -0.0075911311 0.21699345
0.053881124 -0.0096996808 0.21669312
0.05317539 -0.012223724 0.21670434
0.052690491 -0.014842821 0.21659037
0.051986001 -0.017256211 0.21619256
0.051844314 -0.019720852 0.21625784
0.05171705 -0.021653511 0.21630843
0.075112402 0.056646936 0.21484932
0.073606804 0.05471839 0.21485509
0.072806641 0.052558474 0.21501541
0.071981825 0.050007336 0.21571414
0.071190424 0.04768163 0.21597679
0.070136338 0.046043113 0.21598892
0.068033665 0.037890896 0.21615168
0.055654567 -0.0087519549 0.21707165
0.055473141 -0.010418554 0.21711299
0.055183042 -0.012878472 0.21717341
0.055036239 -0.015427152 0.21722707
0.054333635 -0.017934771 0.21682125
0.053876139 -0.020358892 0.21640897
0.053341568 -0.02288446 0.21639648
0.053866521 -0.024857655 0.21646948
0.078065708 0.058465138 0.21489403
0.076763958 0.056756079 0.21499889
0.076069012 0.054298073 0.21550328
0.07502152 0.052043743 0.21590236
0.074069239 0.049749464 0.21601203
0.073052168 0.048100367 0.21602562
0.057460606 -0.016353037 0.21734618
0.056660771 -0.018690256 0.21738642
0.056357231 -0.021114295 0.21717584
0.055879332 -0.023630239 0.21664684
0.055278338 -0.026097851 0.21655083
0.055529322 -0.027981646 0.21661234
0.080742046 0.060096756 0.21493502
0.079870969 0.058697559 0.21502851
0.079097867 0.056432158 0.21571067
0.077903971 0.054352425 0.21600638
0.059388008 -0.016575674 0.21741544
0.058579665 -0.022099432 0.21754585
0.058240563 -0.024233354 0.21756488
0.05757077 -0.026765728 0.21719667
0.057045672 -0.029141095 0.21669482
0.057280362 -0.031387016 0.21676609
0.084354766 0.062325373 0.21498957
0.083114862 0.06045223 0.21500245
0.082293049 0.05821944 0.21566801
0.081596516 0.056484081 0.21606629
0.060048562 -0.023042636 0.21762049
0.059664443 -0.024656618 0.21765377
0.059418317 -0.027695395 0.2177034
0.059379492 -0.02991456 0.21716815
0.058789995 -0.032473423 0.21684629
0.058824457 -0.034760185 0.21691222
0.087035924 0.064121902 0.2150261
0.086192831 0.062335186 0.21509631
0.085466698 0.059960075 0.21570286
0.084330171 0.057966284 0.21611343
0.08334519 0.056468561 0.2161238
0.061492566 -0.030950757 0.21777566
0.061262812 -0.03321512 0.21740986
0.060672708 -0.035724521 0.21699995
0.060627434 -0.037582099 0.21705104
0.090464406 0.066070624 0.21508253
0.089352906 0.064174369 0.21518365
0.088656232 0.0617323 0.21589732
0.087620579 0.059816912 0.21616824
0.064568341 -0.031827562 0.21801722
0.063644372 -0.033813849 0.21797659
0.063191384 -0.036353566 0.2176545
0.062621064 -0.038658142 0.21721345
0.063166916 -0.040410526 0.21721412
0.093793839 0.067306563 0.21515606
0.092576876 0.066081211 0.21522708
0.091811135 0.063708887 0.21596336
0.091026559 0.061518326 0.21623103
0.065682486 -0.035219908 0.2181498
0.065714493 -0.037085496 0.21820374
0.06491448 -0.039510451 0.21783821
0.064662814 -0.041876711 0.21737935
0.064907037 -0.043899208 0.21736987
0.095584154 0.066877797 0.21522658
0.095048942 0.065560438 0.21568449
0.093964309 0.063392922 0.21627362
0.092998408 0.061755843 0.21628857
0.067429096 -0.035835579 0.21822423
0.067828342 -0.037792921 0.21829273
0.067424253 -0.04021775 0.21834832
0.066896617 -0.042655751 0.2176998
0.066602908 -0.044828586 0.21745165
0.099417984 0.06864696 0.21530139
0.098284841 0.067121334 0.21550414
0.097809225 0.065481849 0.21600606
0.095991291 0.063901328 0.21632528
0.069529399 -0.039238043 0.21838926
0.069818169 -0.04087574 0.21844508
0.069217503 -0.043363146 0.2181062
0.068736419 -0.045842305 0.21759483
0.068631589 -0.047905445 0.21760507
0.10236979 0.070680946 0.21533994
0.10136625 0.069037549 0.215354
0.10065255 0.066727333 0.21616068
0.099991344 0.064756051 0.21643145
0.07197319 -0.041993685 0.21854718
0.07180737 -0.043952942 0.21859723
0.071225822 -0.046464905 0.2183654
0.070485175 -0.048961177 0.21769555
0.069418125 -0.050248705 0.21769716
0.10440752 0.070294023 0.2154174
0.10379073 0.068620615 0.21575376
0.10316631 0.066204168 0.21649383
0.10194182 0.064593703 0.21649969
0.07368385 -0.042978831 0.21863091
0.073705301 -0.044677459 0.21867982
0.073603883 -0.047152147 0.21868411
0.073102593 -0.049471468 0.21803975
0.073402584 -0.051440559 0.21786092
0.10710745 0.069998287 0.21551391
0.10633405 0.068010651 0.21632347
0.10573541 0.066070251 0.21658151
0.076071694 -0.048144348 0.21885541
0.075533539 -0.0503086 0.21864893
0.075069919 -0.05272074 0.21795177
0.11058749 0.071025103 0.21559818
0.10951445 0.069656432 0.21577621
0.10883312 0.067277089 0.21662071
0.10789743 0.065806478 0.21665946
0.078662962 -0.048737392 0.21895668
0.078071706 -0.050962768 0.2189763
0.077506244 -0.053328462 0.21821961
0.077907629 -0.055329166 0.21811822
0.11275424 0.070771769 0.21567604
0.11213726 0.069188833 0.21605971
0.1110733 0.067184314 0.21672392
0.080273263 -0.049667768 0.21903561
0.080497101 -0.051780455 0.21910278
0.079954132 -0.054172575 0.21845129
0.079672307 -0.056127608 0.21819848
0.1153202 0.070794865 0.21575916
0.11454512 0.068758547 0.21633755
0.082878307 -0.052947849 0.21921366
0.082408011 -0.054951519 0.2189471
0.082044728 -0.057159074 0.21834685
0.11759274 0.070081167 0.21585353
0.1171127 0.06845814 0.21686035
0.084922343 -0.053607292 0.21929896
0.084842131 -0.055491194 0.21931943
0.084293216 -0.057863191 0.21862835
0.084816374 -0.059599318 0.21846467
0.12100732 0.071303047 0.21593013
0.12017966 0.069793418 0.21612361
0.11925185 0.068020687 0.2169669
0.088097855 -0.054729119 0.21943438
0.087461784 -0.056133404 0.21945339
0.086855486 -0.058544129 0.21885714
0.086502656 -0.060415789 0.2185429
0.12334977 0.070871815 0.2160188
0.12281732 0.069028385 0.21641341
0.12244882 0.066851273 0.21706262
0.089848839 -0.057014704 0.21955635
0.089413807 -0.059273332 0.21908078
0.089001954 -0.06126903 0.21864864
0.12595396 0.07057251 0.21611224
0.12524407 0.068399489 0.21651036
0.12453668 0.066273525 0.21705146
0.09225437 -0.057908215 0.21966021
0.09181866 -0.059979536 0.21932934
0.091275021 -0.062083378 0.2187459
0.12841472 0.071890645 0.21615496
0.12845019 0.070348896 0.21652073
0.12769181 0.067849755 0.2172469
0.12716551 0.066128358 0.21727869
0.094917387 -0.058485948 0.21976343
0.094339982 -0.060636282 0.21935165
0.093760706 -0.062641039 0.21884277
0.13234758 0.070869885 0.21631218
0.13100596 0.069626674 0.21674411
0.13024767 0.067253225 0.21734716
0.12896243 0.06587328 0.21734452
0.097340986 -0.059040941 0.21985815
0.096926011 -0.061249122 0.21951406
0.096544743 -0.063197255 0.21894935
0.13368261 0.070640862 0.21636221
0.13348973 0.069009505 0.21676369
0.13289873 0.066534974 0.21745403
0.13341616 0.064902879 0.2175173
0.099845 -0.060133167 0.21997084
0.099399716 -0.061974742 0.21968326
0.098818831 -0.064314127 0.21905524
0.099009961 -0.065867938 0.21910544
0.1360285 0.068007588 0.21654694
0.13534707 0.065872505 0.21735847
0.13521661 0.06433817 0.21759203
0.10259854 -0.060484186 0.22007066
0.101869 -0.062557973 0.21961741
0.10127569 -0.064909123 0.21915224
0.10022008 -0.06618201 0.21915381
0.13915449 0.069103181 0.21658428
0.13860928 0.067629248 0.21660849
0.1377341 0.065219529 0.21749637
0.13665348 0.063997708 0.21764855
0.10478391 -0.060829096 0.22015162
0.10429122 -0.063215889 0.22010455
0.10405688 -0.065129504 0.21941598
0.14051586 0.068749838 0.21663873
0.14100504 0.066984586 0.21680498
0.14034879 0.064727023 0.21774827
0.10738231 -0.06221284 0.22027561
0.10687507 -0.063851923 0.21991885
0.10600793 -0.065495044 0.21937072
0.14321095 0.065924212 0.21685138
0.14294852 0.063961074 0.21782143
0.14360128 0.062259376 0.21792446
0.11153273 -0.060919769 0.22037433
0.11025483 -0.062351331 0.22028224
0.1093886 -0.064257465 0.21961905
0.14574324 0.065029457 0.21691486
0.14538492 0.063241325 0.21757759
0.14502074 0.061158314 0.21800204
0.11292064 -0.061088994 0.22042434
0.11252204 -0.062756933 0.22000042
0.11197872 -0.065128744 0.21950752
0.11247805 -0.066859566 0.21957278
0.14835635 0.06413018 0.21702553
0.1479515 0.062517509 0.21747521
0.14729828 0.060744442 0.21808805
0.11574341 -0.06191273 0.22053978
0.11510081 -0.063337721 0.22051859
0.11461508 -0.06573119 0.21984449
0.11395682 -0.067286864 0.21963312
0.15060245 0.063561253 0.21711491
0.1503803 0.061860085 0.21740623
0.14981082 0.060073249 0.21818899
0.11833979 -0.062245868 0.22063394
0.11770306 -0.063998565 0.2202151
0.11690491 -0.066418566 0.21977836
0.11552303 -0.067569107 0.21969222
0.15221044 0.062806778 0.21718875
0.15288028 0.061200656 0.21746235
0.15236196 0.059408352 0.21829109
0.12197445 -0.060707591 0.22070882
0.12087531 -0.062182806 0.22071473
0.12019958 -0.064496696 0.21987009
0.11949904 -0.067131206 0.21980958
0.11970507 -0.068956085 0.21986793
0.15504232 0.060099803 0.21752958
0.15496077 0.058281526 0.218272
0.15514274 0.055831328 0.21848325
0.12379261 -0.061090939 0.22077897
0.12324844 -0.062705636 0.22076689
0.1226866 -0.065032221 0.21992649
0.12166478 -0.067771383 0.21989834
0.12129691 -0.069520019 0.21993586
0.15681843 0.059106834 0.21744402
0.15709792 0.057371378 0.21778844
0.15668736 0.054926515 0.21839692
0.15684882 0.053301185 0.21861069
0.12653753 -0.061258003 0.22087325
0.125835 -0.063333079 0.22090907
0.12519385 -0.065853469 0.22052883
0.12453023 -0.068149485 0.22020268
0.15923505 0.056316718 0.21760204
0.15923452 0.05428642 0.21814722
0.15908383 0.052535556 0.21870528
0.12899882 -0.061889686 0.22097147
0.12841931 -0.064003833 0.2210124
0.12770365 -0.066538073 0.22106102
0.12709138 -0.068582259 0.22109918
0.16161399 0.053381458 0.21786915
0.1612065 0.051240772 0.21856543
0.16164839 0.04929556 0.21888089
0.13248461 -0.059990071 0.22103122
0.13162175 -0.062163681 0.22060086
0.13087246 -0.064595722 0.22045158
0.13037297 -0.06668102 0.22053173
0.16405283 0.052530125 0.21786669
0.1634717 0.050374024 0.21823224
0.16304642 0.04858771 0.21894658
0.13704014 -0.055201605 0.22104387
0.13573557 -0.058467165 0.22109394
0.13466264 -0.060305856 0.22102404
0.13398913 -0.062656045 0.22094601
0.13343064 -0.064988896 0.22087024
0.1662107 0.05190748 0.2179547
0.16603613 0.049665771 0.21806675
0.16568431 0.047436841 0.21880637
0.16622311 0.045672975 0.21913287
0.13844155 -0.056052379 0.22111358
0.13785139 -0.058561422 0.22107573
0.13723983 -0.060824633 0.22034718
0.1366048 -0.06361074 0.22044946
0.13535257 -0.065306656 0.22113754
0.16843066 0.048789762 0.21811558
0.16811499 0.046776481 0.21850272
0.16798005 0.044317804 0.21922861
0.14216025 -0.054907039 0.22120245
0.14110701 -0.056645378 0.22118953
0.14046796 -0.059066013 0.22072636
0.1398453 -0.061604366 0.22031626
0.13922638 -0.063292593 0.22034381
0.1702093 0.047652774 0.21820574
0.17041013 0.045959428 0.21866985
0.16970682 0.043470003 0.21930887
0.16942236 0.041504741 0.21935548
0.1453796 -0.053339839 0.22126298
0.14433695 -0.05488383 0.22111389
0.1434945 -0.057109535 0.22066942
0.14293525 -0.059660181 0.22036183
0.14225285 -0.062220141 0.22041222
0.14232539 -0.063863561 0.22046112
0.17246184 0.044834875 0.21838959
0.17229116 0.042760365 0.21883516
0.17168695 0.040219709 0.2193227
0.17104395 0.037810162 0.2195131
0.17123422 0.036038458 0.21956967
0.14900051 -0.051649578 0.2213331
0.14762604 -0.05327528 0.22127548
0.14678596 -0.055294819 0.22067554
0.14607804 -0.057764888 0.22041054
0.14467579 -0.060284965 0.22043625
0.14421275 -0.062303483 0.22047843
0.17424121 0.043842092 0.21844538
0.17426518 0.041963853 0.21849954
0.174054 0.039398387 0.2186489
0.1736239 0.037098646 0.21930733
0.17311282 0.034781225 0.21966659
0.17329974 0.032619454 0.21973407
0.1519393 -0.049192421 0.22135918
0.15090418 -0.051193722 0.22127271
0.15001325 -0.053419463 0.22081323
0.14937824 -0.056001365 0.22046813
0.14857435 -0.05800388 0.22049867
0.17571944 0.038217194 0.21865319
0.17590255 0.036353961 0.21876307
0.17541622 0.034066692 0.2196148
0.17492527 0.031824663 0.21980962
0.15502164 -0.047638364 0.22141562
0.15377274 -0.04921779 0.2210568
0.15305437 -0.051558964 0.22052081
0.15246822 -0.054057159 0.2205137
0.15171465 -0.056451425 0.22055708
0.15064824 -0.057946473 0.2205646
0.17757544 0.035249479 0.21879794
0.17755342 0.033462353 0.21904823
0.17713189 0.030683169 0.21970242
0.17670165 0.028216034 0.21996996
0.17665072 0.026298737 0.22002269
0.15795609 -0.04530184 0.22144498
0.15701926 -0.047311179 0.221302
0.15619458 -0.049639322 0.22080274
0.15494113 -0.052108668 0.22053897
0.15474962 -0.05462043 0.22060408
0.15369877 -0.056153506 0.2206132
0.17944649 0.03209836 0.21894838
0.1794489 0.030063929 0.21900633
0.17900655 0.027605928 0.21942811
0.1785163 0.025189983 0.21999155
0.17848007 0.022722306 0.22018392
0.17847271 0.020414229 0.22024915
0.16272217 -0.038284622 0.22140129
0.1616472 -0.040407561 0.22142641
0.161037 -0.042402633 0.22146316
0.160007 -0.045480452 0.22107498
0.15940242 -0.047755368 0.22058806
0.1587182 -0.04997354 0.22060162
0.18106675 0.028500779 0.21910332
0.18140891 0.026808953 0.21916261
0.18095708 0.024449341 0.21940617
0.18039396 0.021896448 0.2201049
0.17979985 0.019345002 0.2203227
0.17971981 0.01710063 0.22038382
0.16659775 -0.034480184 0.22141972
0.16543433 -0.036291003 0.22143313
0.16466251 -0.038468972 0.22128385
0.16378313 -0.040781312 0.2215067
0.16329192 -0.043507397 0.22156806
0.16264348 -0.046164744 0.22123064
0.1619356 -0.048342407 0.22066025
0.16090101 -0.050074801 0.22067554
0.18250722 0.023644038 0.21928811
0.18254325 0.021144876 0.21939161
0.1819863 0.018721828 0.21963334
0.18144374 0.016259208 0.21997744
0.18114778 0.013798215 0.22041287
0.18054962 0.011223341 0.22057767
0.18032721 0.0087052081 0.22064185
0.18016998 0.0069858171 0.22068557
0.1709142 -0.027735608 0.22136907
0.17014563 -0.029267849 0.22138752
0.16929819 -0.03171137 0.22142918
0.16828927 -0.034040235 0.22146229
0.16725931 -0.036488511 0.22145064
0.16637918 -0.038221061 0.22071797
0.16449535 -0.045118533 0.22165306
0.16475491 -0.046753503 0.2209426
0.16411972 -0.048234262 0.22072828
0.18401626 0.019981096 0.21944126
0.18403706 0.018045232 0.219497
0.18389386 0.015582609 0.21956225
0.18329303 0.013035242 0.2196507
0.18263458 0.010511362 0.22028397
0.18189445 0.0079993773 0.22071294
0.18174893 0.0055227359 0.22051162
0.18126741 0.0033394513 0.2207623
0.18098031 0.00024908525 0.22090316
0.18058312 -0.0014011944 0.22093706
0.17953715 -0.0051072524 0.22100812
0.17931622 -0.0062675299 0.22103384
0.17607789 -0.017522011 0.22124757
0.17603019 -0.018889595 0.22128488
0.17253515 -0.027743071 0.22142217
0.1719828 -0.029602274 0.22145683
0.17138278 -0.032182984 0.22151048
0.17069384 -0.033698849 0.22153108
0.1706427 -0.037947223 0.22164997
0.16946088 -0.042957611 0.221003
0.16842604 -0.044683419 0.22123511
0.16676007 -0.046426058 0.22076307
0.18528771 0.014320103 0.2196434
0.18500565 0.012616321 0.21968253
0.18474302 0.0096803298 0.21986166
0.18437353 0.0074307164 0.22000936
0.18382257 0.004945063 0.21991818
0.18319973 0.002273666 0.22033425
0.1823746 6.1742321e-05 0.22041291
0.18125503 -0.0019285358 0.22091828
0.18049422 -0.0050807148 0.22103859
0.1806477 -0.0077347942 0.2210355
0.18003339 -0.014733449 0.22129747
0.17673013 -0.01744777 0.22126679
0.17633422 -0.018968504 0.22129703
0.17513165 -0.028450085 0.22143984
0.17485656 -0.030021094 0.22124146
0.17336905 -0.0327655 0.22159187
0.17303699 -0.036620468 0.22169045
0.17247663 -0.037901893 0.22143406
0.17228894 -0.039331488 0.22074205
0.18622105 0.0062083178 0.21990402
0.18594906 0.0051114466 0.21992627
0.18495697 0.0015227367 0.21999581
0.18446086 -0.0002168942 0.22002895
0.1842331 -0.0039353757 0.22012706
0.18416786 -0.006108874 0.22018667
0.18268551 -0.0091257105 0.22022387
0.1830675 -0.011161687 0.22093993
0.1820572 -0.013626155 0.22090793
0.18086204 -0.014914017 0.22060166
0.1792433 -0.024261223 0.22054115
0.17867385 -0.025514349 0.22055814
0.17708337 -0.028768955 0.22093228
0.17641056 -0.0301162 0.22061493
0.18475243 -0.0097906468 0.22031015
0.1845364 -0.011411004 0.22050321
0.18387255 -0.013546067 0.2204358
0.1835712 -0.017704912 0.22049624
0.18349242 -0.018007554 0.22050226
0.057867285 0.023823692 0.21722035
0.057213947 0.021766538 0.21725743
0.056709155 0.019096756 0.21731673
0.056086395 0.016760353 0.21736272
0.055614352 0.01370189 0.21743412
0.054809809 0.011522737 0.21746972
0.054306708 0.0092422906 0.21751803
0.062836684 0.033432692 0.21710972
0.063090026 0.032051835 0.21715713
0.061513741 0.029442634 0.21717976
0.060199991 0.025157074 0.21725859
0.059808481 0.023605458 0.21739292
0.059116218 0.021173116 0.2173363
0.058183692 0.019320251 0.21735847
0.057580166 0.015896842 0.21774139
0.057126869 0.013531803 0.21748827
0.056490298 0.011086613 0.21753691
0.055853706 0.0086413911 0.21758553
0.055269189 0.0060876552 0.21763894
0.054771654 0.003407653 0.21769878
0.05434642 0.0010046341 0.2177531
0.054012135 -0.0016783674 0.21781833
0.053568386 -0.0036545065 0.21785995
0.069082737 0.04470554 0.2169935
0.068326011 0.042787187 0.21702327
0.067151994 0.040588781 0.21704736
0.067065373 0.039177664 0.21708456
0.064417265 0.034644097 0.21712685
0.064428717 0.032925747 0.2172287
0.064518273 0.030810526 0.21790627
0.064440019 0.027767615 0.21832366
0.063783407 0.025822548 0.21835744
0.061759721 0.022440473 0.21781549
0.060985133 0.020443318 0.21754849
0.061034296 0.01795499 0.21832709
0.060244437 0.015318662 0.21840583
0.059635393 0.012945855 0.21802558
0.05895612 0.010531799 0.21804526
0.058370497 0.0079753799 0.21811363
0.057893846 0.0053156209 0.21776097
0.057097983 0.0027712188 0.2177927
0.056461398 0.0003260324 0.21784133
0.055824846 -0.0021191782 0.21788996
0.055188231 -0.0045644036 0.2179386
0.054950058 -0.0067867348 0.2179939
0.071902379 0.046770118 0.21702686
0.070922203 0.044854641 0.21704926
0.070103407 0.042546235 0.21717437
0.069169335 0.040021911 0.21757866
0.069147661 0.037939593 0.21739833
0.068644315 0.034758404 0.21826237
0.068364225 0.032401033 0.21832015
0.066681549 0.029836444 0.21856418
0.066089839 0.02746333 0.21892087
0.06562528 0.024991259 0.21901742
0.064904615 0.022325359 0.21876228
0.064216778 0.019793445 0.21877989
0.063440084 0.017266689 0.21858922
0.062756702 0.014796569 0.21863705
0.062116977 0.012339293 0.21868591
0.061477236 0.0098820254 0.21873479
0.060824718 0.0074093323 0.21876827
0.060282283 0.0048133899 0.21824694
0.059589978 0.0021656293 0.2185698
0.058821026 -0.00026778819 0.2189208
0.058220144 -0.0027412891 0.21878964
0.057719685 -0.0052064946 0.21844894
0.05703979 -0.0078331176 0.21838376
0.056602348 -0.01037283 0.21823584
0.056243226 -0.012888378 0.21820921
0.05637892 -0.014608192 0.2182624
0.07604906 0.051495358 0.21702799
0.075040229 0.049137011 0.21706203
0.073980331 0.046817973 0.21710718
0.073392525 0.044229992 0.21742183
0.072728977 0.041878805 0.21811293
0.07242988 0.0388944 0.21826845
0.071284026 0.036848843 0.21828935
0.070637725 0.034390286 0.21836585
0.069939412 0.031817377 0.21841364
0.069263428 0.029305598 0.21922491
0.068628207 0.026901644 0.21948567
0.067945167 0.024277996 0.21953785
0.067262128 0.021654375 0.21959004
0.066559225 0.019124657 0.21958005
0.066005506 0.016624713 0.21893802
0.065366566 0.014119189 0.2187414
0.06470228 0.011674902 0.21883139
0.063985676 0.0092603853 0.21923746
0.06339854 0.0067723095 0.21929628
0.062657595 0.0041650655 0.21926469
0.061951227 0.0015760051 0.21966246
0.061442561 -0.00088584388 0.219283
0.060808521 -0.0033887904 0.21908961
0.06016881 -0.005846052 0.21913849
0.05948437 -0.0084431944 0.21918988
0.058795482 -0.011075782 0.21916094
0.058307409 -0.013489467 0.21864928
0.057866886 -0.015296532 0.2183305
0.057771638 -0.018794684 0.21842667
0.079628199 0.055205278 0.21703941
0.078550234 0.053490974 0.21705292
0.07771337 0.051260896 0.21708892
0.077137858 0.048760116 0.21728618
0.076484598 0.046346083 0.21779461
0.075853065 0.043696798 0.21824402
0.075149655 0.041084394 0.21840462
0.074409701 0.038616151 0.21890397
0.073848769 0.036164269 0.21859561
0.073043302 0.033672005 0.21935934
0.072404474 0.031204727 0.2193929
0.07173942 0.028730292 0.21953525
0.071096569 0.026261 0.21958435
0.07041353 0.023637349 0.21963653
0.069730498 0.021013724 0.21968871
0.069087639 0.018544424 0.21973783
0.068409398 0.016030036 0.21972731
0.067884758 0.013552953 0.21940243
0.067208849 0.011088396 0.21978973
0.066516206 0.0086672176 0.21993427
0.065833151 0.0060435818 0.21998645
0.065150097 0.0034198975 0.22003862
0.064507246 0.00095059903 0.22008774
0.063864395 -0.001518667 0.22013685
0.063213706 -0.0040191687 0.22001
0.062713608 -0.0065009557 0.21961907
0.062078204 -0.0091503942 0.21949737
0.061419267 -0.01174511 0.21934664
0.060731247 -0.014292873 0.21916655
0.060228154 -0.016536282 0.21846057
0.059371665 -0.019191841 0.21849012
0.059104249 -0.021376926 0.21854341
0.081597857 0.055097312 0.21710673
0.080939144 0.053033851 0.21718551
0.080219813 0.050604045 0.21766201
0.079600021 0.048174098 0.21811959
0.078989126 0.0456701 0.21829025
0.078328788 0.043113358 0.21845564
0.077656098 0.040494308 0.21931738
0.076933555 0.037926801 0.21944365
0.076296791 0.035458483 0.21946512
0.075647831 0.032988183 0.21954186
0.07500498 0.030518904 0.21959098
0.074362114 0.028049583 0.21964009
0.073641598 0.025665356 0.21968424
0.073016755 0.022945212 0.21974108
0.072353184 0.020333018 0.21979356
0.071710318 0.017863724 0.21984267
0.07106746 0.015394409 0.21989179
0.070424587 0.012925076 0.21994089
0.069781736 0.010455787 0.21999
0.069138892 0.0079865139 0.22003911
0.06845583 0.0053628762 0.22009131
0.067772783 0.0027391883 0.22014347
0.06712994 0.00026989164 0.22019258
0.066487074 -0.0021993734 0.2202417
0.065844223 -0.0046686628 0.22029081
0.065201357 -0.0071380073 0.22033992
0.064532116 -0.0098164696 0.22010982
0.063984841 -0.012383875 0.2195342
0.063235901 -0.014839904 0.2194937
0.062471785 -0.017259801 0.21927054
0.061998092 -0.019818038 0.21869823
0.061313484 -0.022453327 0.218646
0.06081108 -0.02493896 0.21870016
0.060431715 -0.027298257 0.21875474
0.060626514 -0.0291979 0.21881497
0.085182935 0.057191163 0.21716422
0.084220506 0.054956026 0.21719626
0.083449192 0.052381195 0.21777596
0.082724929 0.049947083 0.2182907
0.0820852 0.047489822 0.21833958
0.081460431 0.044994242 0.21849616
0.080922522 0.042552799 0.21896391
0.080239251 0.039869756 0.21949631
0.079556219 0.037246101 0.21954849
0.078913353 0.034776814 0.21959759
0.078270487 0.032307491 0.21964671
0.077627636 0.029838203 0.21969582
0.076984771 0.027368886 0.21974494
0.076384529 0.024920417 0.21979484
0.075669542 0.022254596 0.21984717
0.074975833 0.01965232 0.2198984
0.074319296 0.017283157 0.21994422
0.073662624 0.014671405 0.21999693
0.073047251 0.012244383 0.22004573
0.0724044 0.0097750826 0.22009484
0.071761526 0.00730582 0.22014396
0.071078502 0.0046821805 0.22019614
0.07039544 0.0020584874 0.22024831
0.069752581 -0.00041080546 0.22029743
0.069109738 -0.0028800771 0.22034654
0.068466872 -0.0053493599 0.22039565
0.067927927 -0.0077182297 0.22003879
0.067132533 -0.010399142 0.22038426
0.066313192 -0.013078816 0.22002129
0.065692261 -0.015477441 0.2195919
0.065052539 -0.017934697 0.21964078
0.064368427 -0.020524822 0.21943839
0.063955143 -0.023068326 0.21883668
0.063252851 -0.025583232 0.21879807
0.062616274 -0.028028408 0.21884669
0.062267579 -0.03022203 0.21889758
0.088210404 0.058880292 0.217215
0.087314278 0.056931004 0.21741316
0.086516052 0.054270171 0.21788494
0.085859343 0.051719725 0.21843222
0.085337833 0.049360089 0.21891604
0.084615126 0.046740241 0.21910052
0.083962657 0.044377111 0.21926111
0.083390713 0.041852713 0.2195428
0.082707681 0.03922908 0.21959499
0.082024634 0.03660544 0.21964717
0.081381775 0.034136139 0.21969627
0.080738917 0.031666819 0.21974538
0.080096051 0.02919754 0.2197945
0.079453185 0.026728218 0.21984361
0.078810334 0.024258927 0.21989273
0.078127295 0.021635266 0.21994489
0.077444263 0.019011648 0.21999708
0.076801397 0.016542356 0.22004619
0.076158524 0.014073038 0.22009531
0.075515665 0.011603713 0.22014441
0.074872799 0.0091344193 0.22019352
0.074229956 0.0066651511 0.22024263
0.073546916 0.0040415134 0.22029482
0.072863847 0.0014178245 0.220347
0.072221011 -0.0010514692 0.2203961
0.07157816 -0.0035207388 0.22044522
0.070935294 -0.0059900349 0.22049433
0.070292428 -0.0084593808 0.22054344
0.069554485 -0.011104922 0.22022714
0.068788335 -0.013657711 0.21964122
0.068148613 -0.016114965 0.2196901
0.067508891 -0.01857223 0.21973898
0.066869155 -0.021029493 0.21978784
0.066187754 -0.023634961 0.21977104
0.065520063 -0.026263354 0.21971036
0.065072358 -0.028654486 0.21913593
0.064309835 -0.030866643 0.21898247
0.064856775 -0.033830814 0.21908438
0.091435082 0.060514361 0.2172738
0.090502016 0.058672741 0.21751323
0.089790285 0.056311108 0.21834055
0.089088529 0.05370722 0.21853982
0.088359393 0.051143162 0.2193107
0.087787673 0.048619978 0.21949415
0.087144807 0.046150669 0.21954326
0.086501949 0.043681368 0.21959236
0.08585909 0.04121206 0.21964148
0.085176051 0.038588427 0.21969366
0.084493011 0.03596478 0.21974584
0.083850153 0.033495493 0.21979496
0.083207279 0.031026168 0.21984406
0.082564428 0.02855688 0.21989317
0.081921563 0.026087565 0.21994229
0.081278712 0.023618262 0.2199914
0.080595665 0.020994617 0.22004357
0.079926774 0.018375169 0.2200961
0.079269774 0.015901696 0.22014487
0.078626901 0.013432389 0.22019398
0.07798405 0.01096306 0.2202431
0.077341177 0.0084937625 0.2202922
0.076698333 0.0060244943 0.22034131
0.076015294 0.0034008578 0.22039349
0.075332239 0.00077717 0.22044568
0.074689373 -0.0016921286 0.22049478
0.074046522 -0.0041613937 0.22054389
0.073403671 -0.0066306912 0.22059301
0.072760791 -0.0091000497 0.22064212
0.07198827 -0.01177791 0.22050533
0.071309388 -0.01433644 0.22046377
0.070625171 -0.016762255 0.22057055
0.069998413 -0.019296946 0.22050354
0.06950479 -0.021693913 0.21994677
0.068799324 -0.024317691 0.21994415
0.068119615 -0.026928535 0.21999605
0.067455195 -0.029400861 0.21991281
0.066936746 -0.031878836 0.21931656
0.066212095 -0.034458056 0.21914643
0.065946817 -0.035908401 0.21917889
0.094689131 0.062613174 0.21732035
0.093289331 0.060447626 0.21761549
0.093009457 0.058127321 0.21836361
0.092400156 0.055633724 0.21844484
0.091694757 0.053031057 0.21867639
0.09090957 0.050445534 0.21946597
0.09025608 0.04797931 0.21959282
0.089613214 0.045510009 0.21964194
0.088970356 0.043040708 0.21969105
0.088327482 0.040571399 0.21974015
0.08764445 0.037947766 0.21979234
0.086961403 0.035324119 0.21984452
0.086318545 0.032854825 0.21989363
0.085594371 0.0304485 0.21993829
0.084749013 0.028118823 0.21997684
0.084249631 0.025359754 0.22003886
0.083654583 0.023058437 0.22008476
0.083025172 0.020331101 0.22014163
0.082249403 0.01785736 0.22018653
0.081617698 0.01521276 0.22024098
0.081095308 0.012791723 0.22029266
0.08045245 0.010322391 0.22034177
0.079809591 0.0078530982 0.22039087
0.07916671 0.0053838375 0.22043999
0.078483686 0.0027601956 0.22049217
0.077800646 0.00013650057 0.22054435
0.077157788 -0.0023327933 0.22059347
0.07651493 -0.0048020594 0.22064257
0.075872064 -0.0072713532 0.22069168
0.075229213 -0.0097406926 0.2207408
0.074546173 -0.012364308 0.22079298
0.073863126 -0.01498796 0.22084515
0.073220268 -0.017457262 0.22089426
0.072577417 -0.019926606 0.22094338
0.071956947 -0.022464814 0.22073112
0.071409196 -0.024995077 0.22004846
0.070729487 -0.027605914 0.22010036
0.070089765 -0.030063173 0.22014923
0.069303498 -0.032614365 0.2200726
0.068729214 -0.034990415 0.21942806
0.068620533 -0.037227772 0.21930356
0.09802185 0.063740894 0.21739702
0.096722379 0.062323667 0.21752
0.096135959 0.0599107 0.2184453
0.095496237 0.057453446 0.21849416
0.094757482 0.055001065 0.21919318
0.094065025 0.052426763 0.21947964
0.093391642 0.049800985 0.21945576
0.092724457 0.04733865 0.2196915
0.092081599 0.044869348 0.21974061
0.091451079 0.042386204 0.21979052
0.090795882 0.039930739 0.21983883
0.090112835 0.037307106 0.21989101
0.089429803 0.034683459 0.2199432
0.088786945 0.032214168 0.21999231
0.088529594 0.029627452 0.22005734
0.087917283 0.027099252 0.22010912
0.08690159 0.024754504 0.22014251
0.086272329 0.023262288 0.22016439
0.084211469 0.019067608 0.22021624
0.083001807 0.013999416 0.22032061
0.083077028 0.012076991 0.22037758
0.082585737 0.0097973887 0.22042623
0.081842624 0.0073455269 0.22047159
0.080951899 0.004920485 0.22051136
0.080482543 0.0022713328 0.22057122
0.079994097 -0.00060455082 0.2206369
0.079595976 -0.0030783364 0.22069412
0.078893408 -0.0054556821 0.22073868
0.078340456 -0.0079120034 0.22079036
0.07769759 -0.010381364 0.22083947
0.077014558 -0.013004966 0.22089165
0.076331511 -0.015628627 0.22094382
0.075688653 -0.01809792 0.22099294
0.075045779 -0.020567263 0.22104205
0.07436873 -0.023075167 0.22098812
0.073797032 -0.025541151 0.22058988
0.073253512 -0.028133601 0.22038959
0.07254611 -0.030700715 0.22024743
0.071906388 -0.033157967 0.22029629
0.071229249 -0.035666883 0.21966651
0.070556931 -0.038246989 0.21939564
0.070618585 -0.040000089 0.2194474
0.099945508 0.063442662 0.21746823
0.099312954 0.061656065 0.21770161
0.098592304 0.059273168 0.21854348
0.097952582 0.056815907 0.21859236
0.097245798 0.054391213 0.21923229
0.096524768 0.051788397 0.21963356
0.095834881 0.049135566 0.2197258
0.095137767 0.046704188 0.21978821
0.094549999 0.044228688 0.21983929
0.093907133 0.041759387 0.2198884
0.093189292 0.039394759 0.21993209
0.092326172 0.036567882 0.21998417
0.091898188 0.034042798 0.22004187
0.090846486 0.03171578 0.22007363
0.090385444 0.029156772 0.2201312
0.089618042 0.026808525 0.22017281
0.088739268 0.024529899 0.22020884
0.088040419 0.015217983 0.22045034
0.087246507 0.013644631 0.22046906
0.08666075 0.01196704 0.22049758
0.081681207 -0.0014061122 0.22071476
0.081877127 -0.0038442058 0.22079025
0.081569754 -0.006151591 0.22084571
0.080808863 -0.0085526733 0.22088903
0.080165982 -0.011022025 0.22093815
0.079482958 -0.013645629 0.22099033
0.078799918 -0.01626925 0.2210425
0.078157052 -0.018738583 0.22109161
0.077514187 -0.021207914 0.22114073
0.076871313 -0.023677232 0.22118984
0.076228462 -0.026146505 0.22123896
0.075542033 -0.028640257 0.22103004
0.074958883 -0.031324752 0.22100624
0.074403465 -0.033759117 0.2204396
0.073660381 -0.03630504 0.22032674
0.073222622 -0.03878855 0.21969816
0.072701439 -0.041238599 0.21955048
0.10370906 0.06503839 0.21754564
0.10243692 0.063250542 0.21759495
0.10171145 0.061069705 0.21834397
0.10104779 0.058672875 0.21864058
0.10011124 0.056532666 0.21867062
0.099806726 0.053628005 0.21894345
0.099119693 0.051088408 0.21918513
0.098502569 0.048751794 0.21983983
0.09757407 0.046038769 0.21988663
0.097082861 0.043471441 0.21994337
0.096529804 0.041078679 0.21999325
0.096047655 0.039226703 0.2200301
0.09407521 0.035235211 0.22007911
0.093567915 0.034762755 0.22007596
0.089709327 0.015196734 0.22050533
0.089316733 0.013317226 0.22042076
0.088687196 0.011408487 0.2205795
0.084636874 -0.0046034688 0.2209018
0.084074385 -0.0067640813 0.22094476
0.083431527 -0.0092333676 0.22099388
0.082788661 -0.011702692 0.22104299
0.082105622 -0.014326305 0.22109519
0.081422567 -0.016949996 0.22114736
0.080779716 -0.019419307 0.22119646
0.08013685 -0.021888623 0.22124557
0.079493985 -0.024357928 0.22129469
0.078851134 -0.026827209 0.2213438
0.078208283 -0.02929648 0.2213929
0.077525243 -0.031920083 0.2214451
0.076870263 -0.034320638 0.22065347
0.07617937 -0.036890306 0.22054157
0.07548447 -0.039503708 0.22042187
0.074974112 -0.042014621 0.21985269
0.074682429 -0.044368207 0.21970388
0.074688569 -0.046432786 0.21976265
0.10545686 0.064970002 0.21760461
0.10479029 0.062920094 0.21799964
0.10429826 0.060415506 0.21869718
0.10365539 0.057961054 0.21878757
0.10304038 0.055514909 0.21891293
0.10240768 0.053015813 0.21884549
0.1017473 0.050443634 0.21913092
0.10099976 0.047868885 0.21994631
0.10069693 0.045434192 0.22000553
0.099780075 0.042725131 0.22005251
0.099152468 0.040397979 0.22009809
0.098730676 0.038581468 0.2201359
0.093805425 0.016907057 0.2205904
0.093022078 0.015133255 0.22061521
0.091612883 0.012814396 0.22063501
0.090554819 0.011380028 0.22064126
0.088472888 -0.0037867152 0.22100377
0.087365016 -0.0051121041 0.2210052
0.086697057 -0.0074447868 0.22104961
0.086054191 -0.0099140769 0.22109872
0.085411325 -0.012383423 0.22114784
0.084728286 -0.015007032 0.22120002
0.084045246 -0.017630683 0.22125219
0.08340238 -0.020099994 0.2213013
0.082759514 -0.02256931 0.22135042
0.082116656 -0.025038639 0.22139953
0.081473798 -0.027507907 0.22144864
0.080830947 -0.029977171 0.22149774
0.080147922 -0.03260079 0.22154993
0.079420879 -0.035130955 0.22096473
0.078789249 -0.037567683 0.22064592
0.078109533 -0.040178545 0.22069786
0.077409931 -0.042805046 0.22064278
0.076755412 -0.045032486 0.21983516
0.076252237 -0.047067016 0.21983165
0.10975242 0.065949783 0.21771684
0.10832559 0.064672917 0.21772416
0.10778578 0.062128693 0.21859838
0.10690435 0.059742913 0.21886376
0.10622182 0.057329185 0.21955106
0.10552887 0.054847814 0.21976686
0.10498789 0.052366965 0.21896367
0.10427198 0.049778111 0.21970285
0.10378391 0.047854953 0.22003752
0.10206774 0.045902207 0.22003703
0.10109026 0.041641489 0.22012606
0.10068743 0.040113658 0.22015627
0.10063707 0.038009524 0.22021431
0.10034693 0.033791274 0.22032456
0.10038885 0.032845959 0.22035281
0.096733466 0.018453736 0.22064202
0.095746771 0.016989527 0.22065133
0.094926052 0.01487954 0.22068445
0.093544997 0.012690892 0.22070161
0.088663399 -0.005766206 0.22106619
0.088910975 -0.0083202599 0.22114666
0.088522583 -0.010554738 0.2211974
0.087863214 -0.013017175 0.22124578
0.087196693 -0.015647687 0.22129869
0.086513638 -0.018271329 0.22135088
0.08587078 -0.020740654 0.22139998
0.085227922 -0.023209972 0.22144909
0.084585041 -0.025679294 0.22149821
0.083942197 -0.028148567 0.22154732
0.083299346 -0.030617835 0.22159642
0.082616314 -0.033241451 0.2216486
0.082006887 -0.035782404 0.22108932
0.081399128 -0.038245067 0.22075023
0.080719411 -0.040855929 0.22080219
0.079943024 -0.043505609 0.22071107
0.079407707 -0.04573223 0.2199889
0.078879744 -0.047685303 0.21993488
0.11283331 0.067760579 0.21776593
0.11163182 0.066277757 0.21776885
0.1107063 0.064116493 0.2183145
0.11000352 0.06155917 0.21886638
0.10933498 0.059145041 0.21947598
0.10860696 0.056802116 0.21994089
0.10795974 0.054164395 0.21999463
0.10738806 0.051768973 0.21998143
0.10646252 0.049600892 0.22007531
0.10517899 0.047730848 0.22008659
0.098183647 0.018077347 0.2207
0.098117083 0.01643732 0.2207443
0.097489946 0.014441336 0.22078049
0.091449536 -0.0093319975 0.22125816
0.090799615 -0.010994164 0.22128412
0.0896255 -0.012433707 0.22128674
0.088897839 -0.016652176 0.22138271
0.08866135 -0.018811233 0.22143623
0.088141218 -0.021415325 0.22149317
0.087696299 -0.023850648 0.22154777
0.087053441 -0.026319955 0.22159688
0.086410582 -0.028789226 0.221646
0.085767739 -0.031258494 0.2216951
0.085084707 -0.033882119 0.22174728
0.084387049 -0.036487266 0.22166201
