# .PCD v0.7 - Point Cloud Data file format
VERSION 0.7
FIELDS x y z
SIZE 4 4 4
TYPE F F F
COUNT 1 1 1
WIDTH 1342
HEIGHT 1
VIEWPOINT 0 0 0 1 0 0 0
POINTS 1342
DATA ascii
-0.13091458 0.068950236 0.21678239
-0.13270719 0.067081429 0.21693866
-0.13441417 0.065107599 0.21717423
-0.13609226 0.063213348 0.21743645
-0.13793552 0.06117186 0.21748678
-0.13964464 0.05930765 0.21747953
-0.14145228 0.057722665 0.2172437
-0.14372617 0.055862881 0.21754885
-0.14517599 0.053960606 0.21768299
-0.1467634 0.052798849 0.217096
-0.15083748 0.047702156 0.21682681
-0.15182497 0.045711171 0.21745495
-0.15331361 0.043745544 0.21724001
-0.15502694 0.041686516 0.21710381
-0.15657824 0.039648827 0.21698217
-0.15814656 0.037576377 0.21697098
-0.15949339 0.03558981 0.21700832
-0.16120139 0.033356506 0.21704818
-0.16205525 0.032023411 0.21707383
-0.11848119 0.078094132 0.21633977
-0.11998747 0.076588295 0.21640381
-0.12193074 0.074651726 0.21675119
-0.12379466 0.073086306 0.21695521
-0.12554288 0.071243115 0.21714146
-0.12728342 0.069213107 0.2174772
-0.129131 0.067442328 0.21750365
-0.13114318 0.065806188 0.21752477
-0.13290294 0.063848227 0.21755694
-0.13436005 0.061596267 0.2176
-0.13619563 0.060051732 0.21762064
-0.13806972 0.058567151 0.21763924
-0.15106593 0.044092242 0.21787734
-0.1520558 0.042635992 0.21790469
-0.15372536 0.040232684 0.21794955
-0.15512043 0.038364943 0.21782318
-0.15681595 0.036216225 0.2176718
-0.15834212 0.03416251 0.21755821
-0.15998578 0.0321442 0.21720742
-0.16144118 0.030283533 0.217126
-0.16276839 0.027726121 0.21717839
-0.16483161 0.025287438 0.21721986
-0.16537675 0.02451672 0.21723413
-0.10971332 0.083422154 0.21629506
-0.11104082 0.0824572 0.21630599
-0.11285892 0.080704488 0.21633224
-0.11477281 0.078828566 0.21644068
-0.11667321 0.076959461 0.21708155
-0.11860047 0.075568825 0.21727039
-0.12048607 0.073686644 0.21743375
-0.12241901 0.071924195 0.21745893
-0.12413312 0.06969738 0.21749866
-0.12547745 0.068002373 0.21752843
-0.12726949 0.06709937 0.21753271
-0.15568987 0.034201298 0.2180859
-0.15691206 0.032685537 0.21811238
-0.15847555 0.031049915 0.21798432
-0.15997167 0.028686237 0.21754874
-0.16163398 0.026704762 0.21762289
-0.16322361 0.024614438 0.21741211
-0.16450477 0.022944387 0.21728468
-0.10584325 0.083541714 0.21633363
-0.10775994 0.082913443 0.21640633
-0.10959166 0.081359595 0.21692382
-0.11139432 0.079548173 0.2172505
-0.11339356 0.077835359 0.21730731
-0.11519168 0.076029792 0.21742958
-0.11661407 0.07515306 0.21743712
-0.15911599 0.027141709 0.21823342
-0.15992765 0.025195118 0.21827547
-0.16157222 0.022990465 0.2181083
-0.16296306 0.020933427 0.21752259
-0.16448878 0.018968403 0.21746458
-0.16601199 0.016917415 0.21742594
-0.16700622 0.015043524 0.21746404
-0.10190596 0.084396183 0.21635373
-0.10431686 0.083114937 0.2166163
-0.10586442 0.081555918 0.2172679
-0.1076453 0.079988457 0.21740744
-0.10937744 0.078903981 0.21741711
-0.16054261 0.021158244 0.21837434
-0.16170973 0.019405473 0.2184076
-0.16303158 0.017365828 0.21833879
-0.16454849 0.015385057 0.2179517
-0.16586933 0.013471761 0.21759595
-0.16706496 0.011079668 0.21756697
-0.096818477 0.086404376 0.21635607
-0.098582909 0.084964074 0.21647158
-0.10048462 0.083722636 0.21693233
-0.10270692 0.081916332 0.21741025
-0.10431381 0.080556005 0.21742846
-0.16221741 0.015605182 0.21850139
-0.16312888 0.013974284 0.2185342
-0.16449104 0.011861202 0.218337
-0.1661512 0.0098260967 0.21816975
-0.16742009 0.0077837091 0.21778734
-0.1689522 0.0056224922 0.21768926
-0.0908584 0.088641688 0.21636185
-0.093060032 0.087104581 0.21637836
-0.095079541 0.085468248 0.21665752
-0.096756361 0.084176414 0.21727675
-0.098683119 0.082977667 0.21742588
-0.16373771 0.0099500259 0.21863273
-0.16446003 0.0080990018 0.21867324
-0.16596487 0.0060682492 0.21841453
-0.16744852 0.0040688654 0.217939
-0.16870824 0.0021311706 0.21778314
-0.087680899 0.088609308 0.21639693
-0.089556418 0.087579951 0.21642549
-0.091315426 0.085907355 0.21669438
-0.093091488 0.084130235 0.21722513
-0.09472236 0.083337508 0.21745919
-0.16361862 0.006061824 0.21873561
-0.16434893 0.0046828417 0.21876377
-0.16592242 0.0023817038 0.2187584
-0.16721973 0.0005105529 0.21807131
-0.16849114 -0.001438492 0.21787873
-0.082275666 0.091486253 0.21638007
-0.084227286 0.089882091 0.21656774
-0.085981593 0.088082716 0.21668635
-0.08781971 0.086281076 0.21719399
-0.089520946 0.084284291 0.21749042
-0.091567196 0.083501421 0.2174889
-0.16485828 0.0003677262 0.21887097
-0.16568348 -0.0012502484 0.21875496
-0.16699192 -0.0030301935 0.21858577
-0.16850823 -0.0052412082 0.2181004
-0.16919899 -0.0069402223 0.21801475
-0.080832638 0.090300173 0.21642667
-0.082382321 0.088568069 0.21719146
-0.084117487 0.086608745 0.2174879
-0.086046226 0.084624916 0.21751894
-0.087651528 0.08302933 0.21754347
-0.16461973 -0.0030761417 0.2189635
-0.16531074 -0.0048343833 0.21900192
-0.16701226 -0.0067441189 0.21850321
-0.16849516 -0.0086318925 0.21806663
-0.073587351 0.09254881 0.21644588
-0.076999933 0.090036742 0.21647483
-0.078685485 0.08858975 0.21677165
-0.080440633 0.086856931 0.21738398
-0.082437523 0.08574678 0.21752855
-0.16369647 -0.0065844851 0.21906509
-0.16511954 -0.0084955841 0.21894099
-0.16668008 -0.010481965 0.21859533
-0.16790202 -0.012429932 0.21833594
-0.16860709 -0.014435496 0.21821693
-0.072925024 0.092588216 0.21645199
-0.073374487 0.090826504 0.21649316
-0.075031951 0.088765495 0.21652928
-0.076664701 0.086970493 0.21730867
-0.078594863 0.085764572 0.2175695
-0.16392952 -0.0097727561 0.21914591
-0.16528612 -0.012105962 0.2191923
-0.16668105 -0.014282748 0.21901311
-0.16775233 -0.016044484 0.21863574
-0.069650173 0.090346768 0.21654585
-0.071304999 0.088919036 0.21658182
-0.073089391 0.087194867 0.21709134
-0.074628361 0.086089201 0.2176038
-0.16500583 -0.015990112 0.21929674
-0.16625418 -0.017800599 0.21933049
-0.1676071 -0.019830614 0.21864662
-0.168643 -0.021680221 0.2184058
-0.066397339 0.09023273 0.21658385
-0.067694128 0.089305811 0.21663712
-0.069463827 0.087518722 0.21712191
-0.071004353 0.086120501 0.21764205
-0.16432644 -0.017685862 0.21934836
-0.16518131 -0.019143082 0.21937717
-0.16635782 -0.021350967 0.2190977
-0.16758454 -0.023390636 0.21859194
-0.16795307 -0.025470845 0.21851225
-0.064275347 0.088695399 0.21664688
-0.065705411 0.08750727 0.21710105
-0.067547776 0.085957296 0.21768348
-0.069230109 0.085244089 0.21768406
-0.16478641 -0.023476679 0.21949469
-0.16586739 -0.025199734 0.21912163
-0.16706002 -0.027156927 0.21864106
-0.060653355 0.088888809 0.21668085
-0.06199104 0.087540545 0.21714631
-0.063679308 0.086098336 0.21752499
-0.065451719 0.085357651 0.2177218
-0.16367081 -0.024992239 0.2195463
-0.16442828 -0.026957132 0.21958952
-0.16565545 -0.028884254 0.21919431
-0.16683517 -0.030427635 0.21865383
-0.058361001 0.087411448 0.21685857
-0.060149543 0.086183503 0.21768779
-0.062212221 0.085172027 0.21776155
-0.16325143 -0.029062882 0.21965714
-0.16408283 -0.030585065 0.21956085
-0.1649425 -0.032244742 0.21892181
-0.054892007 0.087376729 0.21678242
-0.056354828 0.086277373 0.21711138
-0.057921421 0.084977873 0.2178129
-0.16267356 -0.032860432 0.21976256
-0.16338 -0.034216359 0.21924366
-0.16476449 -0.036201295 0.21882704
-0.052855879 0.086078003 0.21683839
-0.054360718 0.084656261 0.2174461
-0.055934045 0.083748765 0.21786638
-0.1611087 -0.034411032 0.21981996
-0.1616337 -0.03595484 0.21964759
-0.16309425 -0.037807345 0.21904925
-0.16367191 -0.039391149 0.21892203
-0.049374171 0.085861221 0.21688148
-0.050781451 0.084783629 0.21707644
-0.052466512 0.083214387 0.21781415
-0.16075172 -0.037617296 0.21990757
-0.16145931 -0.039559346 0.21957386
-0.16234046 -0.041304264 0.21909763
-0.045350544 0.085259028 0.21694057
-0.047128044 0.0846975 0.2169362
-0.049065672 0.0835151 0.21739633
-0.050697848 0.082488753 0.21795572
-0.15958342 -0.041534137 0.22002248
-0.16086289 -0.043115854 0.21943441
-0.045116693 0.085051462 0.21694851
-0.045397498 0.083055288 0.21711642
-0.046821855 0.081362382 0.21794225
-0.047986686 0.079643972 0.21805926
-0.15811671 -0.043052047 0.22007793
-0.1591426 -0.044964846 0.21975797
-0.16013846 -0.046767563 0.21938156
-0.043752104 0.081565626 0.21742947
-0.045007206 0.079901516 0.2180846
-0.046711329 0.079090394 0.21808745
-0.15738627 -0.046961963 0.2201097
-0.15863068 -0.048577871 0.21937828
-0.15919445 -0.050641958 0.21926419
-0.039611235 0.080629446 0.21712333
-0.041337613 0.079698443 0.2177051
-0.042730883 0.07886862 0.21813612
-0.15570796 -0.048734315 0.22023056
-0.15692191 -0.050432038 0.21965045
-0.15829545 -0.052148905 0.21931335
-0.035971843 0.080280013 0.21717168
-0.037885025 0.079732314 0.2173107
-0.039239876 0.078587428 0.21815409
-0.15403101 -0.050746243 0.22032295
-0.15526062 -0.052181482 0.22016282
-0.15650772 -0.053916775 0.2194334
-0.034458369 0.079842731 0.2171995
-0.035873979 0.078159675 0.21754886
-0.037231665 0.077071957 0.2182423
-0.15289442 -0.0520408 0.22036901
-0.15337425 -0.053953119 0.22038095
-0.15477392 -0.055555452 0.21965554
-0.15544629 -0.057063468 0.21947235
-0.032160971 0.078301854 0.21726456
-0.033702545 0.07676965 0.2180341
-0.14979744 -0.054800227 0.22047448
-0.15126735 -0.055753287 0.22019762
-0.15284112 -0.057471726 0.21955179
-0.15385336 -0.059019454 0.21954066
-0.030539535 0.076272674 0.217335
-0.031676151 0.075192027 0.2181112
-0.14917065 -0.055514168 0.22049989
-0.1498446 -0.057056736 0.22053294
-0.15076363 -0.059193142 0.22043587
-0.15229049 -0.061324101 0.21964
-0.02638543 0.075534858 0.21739894
-0.028218068 0.074932769 0.21766374
-0.029576451 0.073836192 0.21840936
-0.14554104 -0.058525685 0.22061767
-0.14704898 -0.059558757 0.22062843
-0.14901426 -0.060964327 0.22060381
-0.1506073 -0.062732235 0.21989629
-0.020812079 0.077886432 0.21839796
-0.022906438 0.076659098 0.21764252
-0.02448006 0.075270422 0.21742651
-0.026130505 0.073436171 0.21794391
-0.027416535 0.072055906 0.21847911
-0.14517537 -0.059060398 0.22063558
-0.14590472 -0.060654487 0.22066936
-0.14700863 -0.062727287 0.22071153
-0.14863712 -0.064548969 0.22002718
-0.14889681 -0.066640548 0.2197931
-0.020030737 0.077159718 0.2184253
-0.021091443 0.075384036 0.21773669
-0.022501495 0.073551133 0.21749274
-0.024167176 0.071717858 0.21819885
-0.025468115 0.069852173 0.21855773
-0.146146 -0.064541213 0.22076829
-0.14707996 -0.066318959 0.22011216
-0.14774168 -0.067779928 0.2198353
-0.019565128 0.073282912 0.21753125
-0.020647764 0.071882538 0.21755631
-0.022287376 0.070059933 0.21830857
-0.023925815 0.068397887 0.21861227
-0.14334989 -0.067321062 0.22087103
-0.14490698 -0.068183593 0.22031963
-0.14591143 -0.069662139 0.21990418
-0.017655771 0.071968339 0.21758623
-0.01876333 0.070119075 0.21762268
-0.020275537 0.06831187 0.21848087
-0.021797001 0.06745524 0.21865985
-0.1426031 -0.06789986 0.2208942
-0.14307275 -0.069950432 0.22068998
-0.14441165 -0.071591876 0.2199709
-0.01483009 0.06913498 0.21769063
-0.016678207 0.06818299 0.21775922
-0.018254716 0.066841826 0.21861595
-0.13950965 -0.070505537 0.22099558
-0.14099932 -0.071633942 0.220577
-0.14241357 -0.073231578 0.22003523
-0.013979141 0.068508126 0.21771617
-0.015014421 0.066764146 0.21793719
-0.016305406 0.06479834 0.21872166
-0.016933907 0.063166752 0.21882428
-0.13765511 -0.071272515 0.22103567
-0.13921663 -0.073300779 0.220596
-0.1405375 -0.074828945 0.22009717
-0.012887601 0.064603724 0.21783006
-0.014531627 0.06317094 0.21849371
-0.015723418 0.061996013 0.21886787
-0.13745609 -0.075278744 0.22083963
-0.13878398 -0.076977529 0.22017224
-0.13968417 -0.078163274 0.22019339
-0.0090723634 0.064480357 0.21787435
-0.010883465 0.063081615 0.21803434
-0.012550551 0.0613923 0.21890345
-0.014474992 0.061124317 0.21890414
-0.13519827 -0.077231593 0.22094111
-0.13667443 -0.078247204 0.22022808
-0.0074850097 0.063316256 0.2179219
-0.0090594441 0.061528228 0.21795166
-0.010475904 0.059906736 0.21875475
-0.1333895 -0.078695886 0.22101925
-0.13457745 -0.080312341 0.22030464
-0.13845585 -0.08580526 0.22040628
-0.13936698 -0.086821027 0.22097875
-0.0056883842 0.061478637 0.21798924
-0.0069137737 0.059662372 0.21802354
-0.0080935434 0.057986081 0.21861887
-0.13000743 -0.079247914 0.22132638
-0.13145556 -0.080336362 0.22110824
-0.13296139 -0.081786908 0.22036059
-0.13794313 -0.086232483 0.22042295
-0.13830605 -0.088032804 0.22049953
-0.0033546016 0.059178062 0.21807444
-0.0049624965 0.057983465 0.21808842
-0.0067247823 0.056403786 0.21881391
-0.12804259 -0.080615886 0.22138323
-0.12954737 -0.081925943 0.22125481
-0.13046581 -0.083581991 0.22052261
-0.13500434 -0.08890368 0.22052439
-0.13585967 -0.089425273 0.22052887
-0.0018492937 0.057790071 0.21812695
-0.0030902028 0.056298397 0.21815261
-0.004640989 0.0543884 0.21870823
-0.005720526 0.053117409 0.2192076
-0.12650464 -0.082047321 0.2214372
-0.12751037 -0.083716959 0.2212978
-0.12896942 -0.084940553 0.22064394
-0.13486086 -0.090390168 0.22056477
-6.2674284e-05 0.056027405 0.21819222
-0.0012208298 0.054662362 0.2182155
-0.0028252378 0.052760474 0.21890076
-0.0038530752 0.051316012 0.21927477
-0.12555441 -0.085413292 0.22112826
-0.12698385 -0.086230002 0.22054096
0.00088305026 0.05467682 0.21823765
0.00047390163 0.052803554 0.21828228
-0.00089493394 0.051062047 0.21885259
-0.0021956563 0.049724031 0.21933424
-0.12214103 -0.08593598 0.22158585
-0.12352769 -0.086995445 0.22094321
-0.12386797 -0.088960782 0.22064587
0.0027301311 0.051132232 0.21835029
0.0010000765 0.049222369 0.2187842
2.3029745e-05 0.047605064 0.21941355
-0.1197969 -0.087134019 0.22164236
-0.12148115 -0.088721432 0.22103509
-0.12279418 -0.090167791 0.22068898
0.004316479 0.049287401 0.21841554
0.0028638244 0.047486927 0.21846086
0.001421757 0.045529123 0.21945098
0.0010377094 0.043572724 0.21952981
-0.11699805 -0.087432861 0.22168039
-0.11786611 -0.088601038 0.22170146
-0.11962043 -0.090510719 0.22118691
-0.12089933 -0.091574833 0.22074616
0.0061164349 0.047434442 0.21848333
0.0048478395 0.045721125 0.21851446
0.0030983537 0.043697912 0.21900423
0.0019671395 0.042475805 0.21956843
-0.11606181 -0.090388142 0.22176762
-0.1176407 -0.092234373 0.22116978
-0.11878166 -0.093475409 0.22081861
0.007753402 0.045292851 0.21855681
0.0068355948 0.043956783 0.21858199
0.0049772635 0.041915301 0.21883754
0.0037768856 0.040627748 0.21963625
-0.11412839 -0.092169479 0.22168997
-0.11567299 -0.093861751 0.22096364
-0.11744354 -0.094558567 0.22086133
0.0090433434 0.044088162 0.2186022
0.0085289925 0.042174917 0.21864675
0.0068483278 0.040208563 0.21888277
0.0055457726 0.038409878 0.2197132
-0.11010959 -0.093210861 0.22190553
-0.11219972 -0.093877338 0.22157596
-0.11356318 -0.095039532 0.22091579
0.010328226 0.040217582 0.21871728
0.0089072883 0.038542014 0.21875946
0.0072986856 0.036779214 0.21951704
0.0063466951 0.035235569 0.21980476
-0.10857554 -0.094172232 0.22175962
-0.11008368 -0.095399149 0.221185
-0.11138368 -0.096553735 0.22097877
0.011705086 0.038635612 0.21877331
0.010565758 0.037091225 0.21880147
0.0090328231 0.03488259 0.21897909
0.0080149025 0.033334024 0.21975048
-0.10471772 -0.094081685 0.22198638
-0.10660359 -0.095433772 0.22175121
-0.10789905 -0.096818574 0.22102331
0.010826625 0.032917447 0.21891332
0.0094854236 0.031418096 0.21956317
0.0088701323 0.029756129 0.21997514
-0.10301209 -0.095188387 0.22201666
-0.10456893 -0.096946515 0.22152144
-0.10583158 -0.098341547 0.22108534
0.01264146 0.030935228 0.21898462
0.011368848 0.029587019 0.21933959
0.010361895 0.028188411 0.22003214
-0.099276222 -0.095543034 0.22208318
-0.10085993 -0.096726224 0.2215776
-0.10263279 -0.098483011 0.22114052
-0.10430841 -0.099369399 0.22112852
0.015802093 0.03097976 0.21901746
0.01503595 0.029621087 0.21904482
0.013342939 0.027842522 0.21916004
0.011897564 0.025971994 0.21983111
0.011267878 0.024237685 0.22014512
-0.09715008 -0.09673515 0.22213721
-0.098774381 -0.0983667 0.22160658
-0.10065804 -0.099281386 0.22116555
0.016457468 0.02777179 0.21910836
0.015277609 0.026193868 0.21913697
0.013658598 0.024227276 0.21927387
0.012379594 0.022197597 0.22021043
-0.093799919 -0.096909672 0.22217791
-0.095210433 -0.098156005 0.22219516
-0.096476659 -0.099560775 0.22190247
0.018417016 0.025992759 0.21917599
0.017663009 0.025256112 0.21918702
0.014948949 0.022206064 0.21923758
0.013794355 0.020473149 0.22000305
0.012955464 0.018461801 0.22031415
-0.091696218 -0.098280773 0.22223632
-0.093231633 -0.10003605 0.2219038
-0.094629474 -0.10107286 0.22137421
0.016240396 0.020219494 0.21930328
0.015638009 0.018593267 0.21950158
0.014077686 0.016701832 0.2203722
0.013474829 0.015122094 0.22040705
-0.087881662 -0.098777138 0.22229041
-0.089581259 -0.09998668 0.22203773
-0.09121722 -0.10115114 0.22147909
0.019192778 0.018160034 0.21938893
0.017562993 0.01700731 0.21944638
0.015984312 0.015063568 0.22016272
0.014607348 0.013434901 0.22046337
-0.08437302 -0.098683357 0.22232577
-0.085990146 -0.099704653 0.22231884
-0.087601259 -0.10127558 0.22176133
-0.089427516 -0.10186148 0.22135398
0.020456217 0.017090891 0.21943048
0.019209266 0.01567854 0.21945399
0.017528474 0.013552475 0.21951146
0.016268954 0.011622048 0.22019511
0.015661061 0.0097193094 0.22057176
-0.08249189 -0.099688575 0.22237232
-0.08419691 -0.10137943 0.22204854
-0.085615799 -0.10279261 0.22144276
0.018277757 0.011636349 0.21954946
0.017575458 0.0097661698 0.21965986
0.016519591 0.0078041879 0.22024198
0.015913367 0.006031286 0.2206708
-0.078559726 -0.099969715 0.222422
-0.08031261 -0.10118204 0.22216932
-0.082239293 -0.10267214 0.22164677
-0.084006883 -0.10360611 0.22145796
0.018396288 0.0077674259 0.21965182
0.017956711 0.005917226 0.21971595
0.016881734 0.0041846735 0.22043428
-0.074576959 -0.099869415 0.22246233
-0.076621577 -0.1010279 0.22210677
-0.078327462 -0.10241736 0.22157598
-0.080258094 -0.10330918 0.22149061
0.01922904 0.0039963424 0.21975929
0.018422693 0.0023478912 0.22017542
0.017362542 0.00051124673 0.22079939
-0.071470536 -0.099241145 0.22247945
-0.073042497 -0.10076404 0.22232875
-0.074749649 -0.10233991 0.22171924
-0.076438129 -0.10346577 0.22153583
0.023263671 0.0024177134 0.219844
0.019990236 0.00049787387 0.21985899
0.01880303 -0.0013086502 0.22018099
0.017293699 -0.0031860517 0.22074896
0.016470172 -0.0048279106 0.2209605
-0.067732953 -0.099456169 0.22252525
-0.069376789 -0.10065908 0.22222556
-0.071194902 -0.10197247 0.22185038
-0.073073156 -0.10304772 0.22156118
0.023624927 0.0014118608 0.21987419
0.022150114 -0.0015267543 0.21993515
0.020699561 -0.0030590594 0.21995962
0.018826067 -0.0050176531 0.22014555
0.017542131 -0.0069144713 0.22089215
0.016452111 -0.009138708 0.22107288
-0.06194856 -0.097734682 0.22254266
-0.063300177 -0.098972559 0.22256038
-0.065558635 -0.10036799 0.22218883
-0.067366742 -0.10188959 0.22169553
-0.069219433 -0.10265228 0.22159238
0.023682393 -0.0025974591 0.21997955
0.021544196 -0.0042269649 0.21999906
0.020297647 -0.0066435062 0.22004884
0.019046217 -0.0085816532 0.22015853
0.017474189 -0.010602938 0.22067328
0.016432956 -0.012422274 0.22115847
-0.058513936 -0.09745609 0.22257239
-0.060250439 -0.098364808 0.2223803
-0.061961591 -0.099954687 0.22210722
-0.06374225 -0.10156934 0.22175439
-0.06564372 -0.10255023 0.22162822
0.020151645 -0.0099772494 0.22013427
0.019133158 -0.012363445 0.22018579
0.017685868 -0.014278453 0.22075276
0.016666889 -0.016436687 0.22126585
0.015811905 -0.017872557 0.22129419
-0.053067915 -0.095425487 0.22257802
-0.054665312 -0.096478365 0.22258833
-0.056651071 -0.098102011 0.22251545
-0.058303341 -0.099758402 0.22189546
-0.060186781 -0.10124497 0.22165303
-0.061938267 -0.10214514 0.2216576
0.020251758 -0.014338883 0.2202493
0.019493669 -0.016084259 0.22030301
0.017892517 -0.017883576 0.22088815
0.016850427 -0.019657627 0.22135204
-0.05142913 -0.096245319 0.22256306
-0.052781567 -0.097514935 0.22222807
-0.054732852 -0.099610634 0.2219446
-0.056168899 -0.10067191 0.22168128
0.020280823 -0.017622918 0.22033541
0.019383319 -0.019548006 0.22039889
0.018197089 -0.021443512 0.2207115
0.016423531 -0.023969799 0.22109258
0.015365817 -0.02564197 0.22149235
-0.043750104 -0.092978999 0.2226145
-0.045298729 -0.094086699 0.22262678
-0.047244359 -0.095837735 0.22265154
-0.04923559 -0.097548634 0.22209013
-0.051137723 -0.099122398 0.2217195
-0.052587286 -0.10034742 0.22171137
0.019621581 -0.023569584 0.22048378
0.018254355 -0.0253531 0.22051567
0.016612262 -0.027225006 0.22094692
0.015277244 -0.029084157 0.22144561
0.013751596 -0.031573009 0.22162984
0.012920797 -0.032957979 0.22165713
-0.038536914 -0.090776756 0.22261314
-0.040043946 -0.091817506 0.22262411
-0.042013574 -0.093407415 0.22264434
-0.04388772 -0.09534169 0.22257999
-0.04555843 -0.097151764 0.22205679
-0.047215022 -0.098424144 0.22176675
0.021439917 -0.025747474 0.22056016
0.019882344 -0.026588999 0.22056541
0.018079214 -0.028752293 0.22060253
0.016719177 -0.030809261 0.2207576
0.015030742 -0.032735385 0.22100714
0.013644986 -0.034925081 0.22144029
0.012186162 -0.03688547 0.22175181
0.010760799 -0.038993649 0.22179151
-0.033035286 -0.08822348 0.22260572
-0.034835815 -0.089490145 0.22261943
-0.036725726 -0.091287903 0.22233006
-0.038400643 -0.09304516 0.22253285
-0.040138695 -0.095072955 0.22253689
-0.041911118 -0.096792452 0.22220428
-0.043673716 -0.098178923 0.2217508
0.022641748 -0.026900824 0.22060321
0.022218943 -0.027575679 0.22061631
0.017564721 -0.03240788 0.22069238
0.016349472 -0.034124933 0.2207242
0.014878288 -0.036343686 0.22086076
0.01345709 -0.038248781 0.22108842
0.011781856 -0.040334854 0.22141518
0.010340273 -0.042446215 0.22182792
0.0089369938 -0.04463356 0.22191925
0.0079435781 -0.046238437 0.22195044
-0.025977265 -0.084798522 0.22259229
-0.026499074 -0.085386045 0.22260202
-0.029466376 -0.08778058 0.2226326
-0.031254482 -0.088918962 0.22221251
-0.033110153 -0.090971328 0.22245178
-0.034793943 -0.09239424 0.22182755
-0.037118163 -0.094360292 0.22186463
-0.038702521 -0.095912158 0.2221324
-0.040078934 -0.097152859 0.2217627
0.014413714 -0.03980105 0.22085159
0.013392925 -0.042050462 0.22089946
0.011909276 -0.044071551 0.22103222
0.010362975 -0.04591126 0.22162451
0.0088525862 -0.048003383 0.22158308
0.0072773993 -0.050450351 0.22179233
0.0057244375 -0.052221753 0.22208284
0.0048723295 -0.053692397 0.22211207
0.0019871369 -0.056980323 0.22216688
0.00072064251 -0.058250632 0.22218636
-0.0010911003 -0.060382463 0.22222257
-0.0024000704 -0.061848968 0.22224678
-0.024188541 -0.085483164 0.22262949
-0.02588404 -0.086995199 0.22255193
-0.02760068 -0.088676952 0.22267608
-0.029411398 -0.090709493 0.22206952
-0.031847291 -0.092122555 0.22172001
-0.032998331 -0.093261547 0.22173731
0.01260069 -0.045844767 0.22098993
0.011624694 -0.047320362 0.22101797
0.010338955 -0.049499273 0.22106116
0.0084970146 -0.051560715 0.22118777
0.007017307 -0.053491555 0.22142084
0.0055532828 -0.055576991 0.22176588
0.0038086772 -0.057574552 0.22201265
0.0020165741 -0.059407271 0.22193497
0.00017729402 -0.061378114 0.22168069
-0.0014820099 -0.063289866 0.2218888
-0.0029216856 -0.065389432 0.22229442
-0.0049026087 -0.067463607 0.2223665
-0.0063933283 -0.06924969 0.22239712
-0.0071470886 -0.070790119 0.22242922
-0.02035201 -0.086085871 0.22168615
-0.022301521 -0.086985216 0.22233672
-0.02408018 -0.088168696 0.22195545
-0.026074328 -0.090113796 0.22247422
-0.027469516 -0.092523552 0.22246207
-0.028547976 -0.093587331 0.22179379
0.0076176301 -0.055222217 0.22118121
0.0066398308 -0.05654287 0.22120517
0.0048880577 -0.058940712 0.221249
0.0035202503 -0.060700882 0.22128028
0.0015038624 -0.062610298 0.22130841
2.4601817e-05 -0.064880498 0.22135182
-0.001552254 -0.066889882 0.22173408
-0.0031175539 -0.068862773 0.22236334
-0.0048154444 -0.070851587 0.22201391
-0.0059826523 -0.072264753 0.22165859
-0.019849751 -0.086336538 0.22169809
-0.020790275 -0.087787844 0.22172594
-0.022186384 -0.08877904 0.22173673
-0.026336282 -0.093822636 0.22223136
-0.00058739632 -0.068593584 0.2214421
-0.0015782937 -0.070212848 0.22168447
-0.0032143369 -0.071604662 0.22153796
-0.0048423931 -0.073018104 0.22151187
-0.13917625 0.058116578 0.21863948
-0.12873641 0.066382378 0.21859492
-0.13089925 0.065431677 0.21853761
-0.13269627 0.063721627 0.2185629
-0.13461277 0.060401365 0.21862897
-0.13535924 0.05904796 0.21923986
-0.13749686 0.057485282 0.2188523
-0.13854887 0.055553526 0.21871325
-0.11790425 0.074431829 0.21844251
-0.11981332 0.07285393 0.21846315
-0.12163249 0.07098911 0.21858323
-0.12313563 0.069249049 0.21852154
-0.12501803 0.066975698 0.21856065
-0.12709081 0.065637045 0.2191321
-0.12782034 0.064371489 0.21959884
-0.13038746 0.060085818 0.22001661
-0.1319066 0.059117235 0.21982545
-0.1339535 0.057740554 0.22025557
-0.13566399 0.055699222 0.22000973
-0.13728985 0.05413964 0.21960539
-0.15271971 0.034903191 0.22010039
-0.15453643 0.034195777 0.2196667
-0.15516876 0.032573845 0.21973468
-0.1591787 0.027511075 0.2192235
-0.11107515 0.078131415 0.21841943
-0.11262759 0.07685563 0.21843605
-0.11444256 0.075137496 0.21846138
-0.11635992 0.073501773 0.21861394
-0.11804453 0.071665369 0.21893601
-0.11996767 0.069648452 0.21951839
-0.12166317 0.067639492 0.21949348
-0.12335637 0.065729752 0.21947409
-0.12512986 0.064040594 0.21983665
-0.12694171 0.061946116 0.22065561
-0.12855178 0.059851877 0.2206915
-0.13030587 0.05816415 0.22058959
-0.13198568 0.05620198 0.22076771
-0.13380155 0.0541998 0.2207734
-0.1354278 0.052189212 0.22083545
-0.13613495 0.050383039 0.2208751
-0.14047131 0.044967089 0.22096986
-0.14204118 0.043405369 0.22099374
-0.14335097 0.042085003 0.22101413
-0.1462104 0.039727777 0.22104484
-0.14756182 0.038406949 0.22106476
-0.14886379 0.036409702 0.22110292
-0.15092751 0.034554608 0.22076699
-0.15265222 0.032726992 0.220487
-0.1544053 0.030879557 0.22010748
-0.15537387 0.028860267 0.22005311
-0.15787989 0.026738342 0.21925773
-0.15901503 0.024688594 0.21929905
-0.16023043 0.022918772 0.21933219
-0.10740143 0.079003923 0.21843624
-0.10934003 0.077589914 0.21845229
-0.11123562 0.075674213 0.21886313
-0.11292537 0.073816277 0.21951276
-0.11451739 0.07193052 0.21973418
-0.11621632 0.069968604 0.21989731
-0.118047 0.068158872 0.22036943
-0.11980404 0.066075601 0.22064102
-0.12160458 0.064048357 0.22067457
-0.12334891 0.062167026 0.22070493
-0.12518564 0.060292058 0.22073412
-0.12672076 0.058469087 0.2207652
-0.12871425 0.056632832 0.2207917
-0.13036293 0.054907538 0.22081903
-0.13214755 0.052653354 0.22085866
-0.13418938 0.051005624 0.22087973
-0.13567427 0.049239572 0.22090988
-0.13909566 0.044374324 0.22100011
-0.14047216 0.042887688 0.2210241
-0.14204505 0.041606657 0.22104062
-0.144813 0.038270757 0.22109798
-0.14575283 0.03685943 0.22112468
-0.14744744 0.034951445 0.22115625
-0.14914203 0.033043485 0.22118784
-0.15083663 0.031135496 0.22121944
-0.15253675 0.029190592 0.22083081
-0.15424463 0.027158547 0.22033709
-0.1560495 0.025171287 0.2198521
-0.15767586 0.02319866 0.21970394
-0.15928441 0.021353614 0.21941453
-0.16062786 0.01905461 0.21942885
-0.16196102 0.017098796 0.21946558
-0.1004477 0.0823429 0.21842389
-0.10202479 0.081411652 0.21843126
-0.10380411 0.079596691 0.21861959
-0.10577906 0.077881701 0.21909741
-0.10763843 0.076012522 0.21917886
-0.10922311 0.073999383 0.21972361
-0.11100625 0.072178282 0.2204719
-0.11270627 0.070225254 0.2206091
-0.11440088 0.068317264 0.22064067
-0.11606932 0.066591531 0.22066778
-0.11845084 0.06480784 0.22068873
-0.11978102 0.063780405 0.22070129
-0.12455601 0.058564238 0.22078612
-0.12497966 0.058087237 0.22079402
-0.13832474 0.043061797 0.22104275
-0.13885431 0.042465549 0.2210526
-0.14482659 0.035634525 0.22116674
-0.14624596 0.0335829 0.22120498
-0.1473245 0.031352062 0.22125161
-0.1489286 0.029441934 0.22128423
-0.15062325 0.027533896 0.22131582
-0.15245783 0.025480323 0.2209762
-0.15417795 0.023464452 0.22038367
-0.1558643 0.021565776 0.22041512
-0.15753946 0.01970537 0.22000387
-0.15924838 0.017659515 0.21979682
-0.16089043 0.01565326 0.21966773
-0.16230763 0.013573541 0.21955392
-0.16334295 0.011567711 0.21959516
-0.096671142 0.082803741 0.21845259
-0.098613396 0.081767455 0.21845873
-0.10031486 0.079973787 0.21868472
-0.10203607 0.078221813 0.21984433
-0.10376056 0.076355085 0.22035779
-0.10546775 0.074244596 0.2205821
-0.10729274 0.072265498 0.22061412
-0.1091383 0.070776433 0.22063313
-0.1116646 0.068916805 0.22065455
-0.11299859 0.067214765 0.22068462
-0.11448729 0.065962821 0.22070134
-0.13938144 0.036109164 0.221213
-0.1467962 0.029681738 0.22130102
-0.14744405 0.027640477 0.2213473
-0.14859593 0.025734484 0.22138467
-0.1504834 0.023692723 0.22132571
-0.15223657 0.021704052 0.22114697
-0.15388438 0.019986447 0.22088625
-0.15559986 0.017839078 0.22097793
-0.15714574 0.015981164 0.22059986
-0.15907693 0.013973544 0.22053181
-0.16080037 0.0119947 0.2201931
-0.162283 0.010065268 0.21976133
-0.1634291 0.0079154046 0.21968967
-0.092982605 0.082861707 0.21849078
-0.094847873 0.081968486 0.2185798
-0.09662962 0.080159366 0.21910581
-0.098431163 0.078323558 0.2194511
-0.099952139 0.076424696 0.22046334
-0.10161895 0.074544489 0.22061571
-0.10372111 0.07289806 0.22063608
-0.10542688 0.071457759 0.22065538
-0.14531316 0.02546861 0.22142701
-0.14686087 0.02435156 0.22143951
-0.14859161 0.021849312 0.22148621
-0.15018247 0.019970119 0.22151816
-0.15184884 0.017962329 0.22155266
-0.15355891 0.016064502 0.22158381
-0.15530819 0.014221271 0.22140479
-0.15706956 0.012226985 0.2212635
-0.15863332 0.010186055 0.22081958
-0.16055751 0.0082687819 0.22063941
-0.16214234 0.0063032797 0.22008698
-0.16355735 0.0041041039 0.21978784
-0.16490155 0.0021902248 0.21982336
-0.09010601 0.083405718 0.21850756
-0.09117128 0.082299143 0.21861464
-0.093110189 0.080769531 0.21907766
-0.094751202 0.078585736 0.22040358
-0.096352868 0.076604836 0.22060277
-0.098060131 0.074736193 0.22064906
-0.099768639 0.073456623 0.2206641
-0.14732079 0.020162996 0.22154398
-0.14852262 0.019413803 0.22155067
-0.15040451 0.016000528 0.22161949
-0.1518082 0.014643927 0.22163978
-0.15361932 0.012571082 0.22167443
-0.15504003 0.01055492 0.22171178
-0.15687783 0.0086043281 0.22150916
-0.15841103 0.0065898802 0.22092763
-0.16032587 0.0046689659 0.22076365
-0.16207361 0.0027879318 0.22053486
-0.16356549 0.00076918863 0.22011822
-0.16451186 -0.0012082676 0.21991634
-0.084001154 0.085167073 0.21852732
-0.085092425 0.084136531 0.21854253
-0.087522224 0.082019269 0.21866259
-0.08934325 0.08071164 0.21946318
-0.091060191 0.078764081 0.22051319
-0.092765555 0.076903716 0.22064948
-0.094753645 0.07544183 0.22066626
-0.096411631 0.074244499 0.22067976
-0.15382713 0.0088701816 0.22176889
-0.15482658 0.0069533829 0.22180817
-0.15670463 0.0049480917 0.2217754
-0.158338 0.0027487129 0.22141136
-0.16001078 0.0009817332 0.22115479
-0.16185783 -0.00096624624 0.22065663
-0.1634282 -0.0027795406 0.22000241
-0.16416404 -0.0043630973 0.2200025
-0.080499277 0.085543238 0.21855523
-0.082208343 0.084587194 0.21862637
-0.083941735 0.082817495 0.21877009
-0.08568389 0.080947742 0.21958192
-0.087466851 0.079104789 0.22042689
-0.089298591 0.077307075 0.2206763
-0.090810791 0.076328479 0.22068566
-0.15324008 0.0049663503 0.22187719
-0.15471905 0.0032325666 0.22190653
-0.15651959 0.0012053112 0.22194009
-0.15821421 -0.00070266705 0.22197168
-0.15994105 -0.0026255576 0.22142187
-0.16168973 -0.0045945151 0.22054835
-0.16277964 -0.0063462947 0.22012053
-0.076588504 0.085626841 0.21859519
-0.078365341 0.084762812 0.21859865
-0.080192529 0.083164692 0.21925631
-0.081956089 0.08127743 0.21981335
-0.083821751 0.079316728 0.22053212
-0.08554332 0.077370375 0.22071511
-0.15214966 0.003724278 0.22192146
-0.15340728 0.0020681592 0.2219511
-0.15495938 -0.00050413515 0.22200157
-0.15630612 -0.002396313 0.22203648
-0.15813455 -0.0043324609 0.22196878
-0.15962404 -0.0063173361 0.22134364
-0.16133355 -0.0081517035 0.2209585
-0.16302946 -0.010538047 0.2204489
-0.16438885 -0.012462238 0.22021167
-0.1651527 -0.014025671 0.22024426
-0.073012166 0.085690536 0.21863204
-0.07478486 0.084953465 0.21863225
-0.076480016 0.083214566 0.21900624
-0.078255236 0.08163286 0.21968201
-0.079952441 0.079619639 0.22068326
-0.081842929 0.077717021 0.22074592
-0.083882377 0.076473475 0.22075649
-0.15506464 -0.0044401782 0.22210328
-0.15609273 -0.0059979632 0.22213288
-0.15784201 -0.0079973498 0.22188625
-0.15934873 -0.010098547 0.2213787
-0.16113675 -0.011971979 0.22118826
-0.16293131 -0.013954753 0.22095349
-0.16406107 -0.015764914 0.2203697
-0.1646685 -0.017665353 0.22034454
-0.071318768 0.085038736 0.21866736
-0.072712786 0.08363422 0.21889257
-0.074755922 0.081347898 0.22028288
-0.076318562 0.079716846 0.22069766
-0.0781262 0.078131683 0.22077514
-0.079995506 0.076975875 0.22078523
-0.1538277 -0.0060890103 0.22215971
-0.15438384 -0.0076490007 0.22219442
-0.15580545 -0.0097016199 0.22223271
-0.15747656 -0.01161722 0.22225106
-0.15903935 -0.013588085 0.22156993
-0.16087478 -0.015659992 0.22107263
-0.16251746 -0.017500196 0.22056606
-0.16417819 -0.019465663 0.22039691
-0.16516125 -0.021273714 0.22043353
-0.067516737 0.084835224 0.21871363
-0.069253907 0.08375416 0.21911773
-0.070946902 0.081808791 0.21997714
-0.072606705 0.07986369 0.22077398
-0.074297711 0.077932395 0.22082159
-0.075350523 0.07663326 0.22084422
-0.1543261 -0.012063768 0.22231039
-0.15542737 -0.013412815 0.22233374
-0.15726435 -0.015327865 0.22206907
-0.15889984 -0.017306898 0.2215156
-0.16078846 -0.019205965 0.22131601
-0.1623162 -0.021088552 0.22074157
-0.16398512 -0.022969708 0.22049052
-0.063745387 0.084811755 0.21875489
-0.065548435 0.084021471 0.21917193
-0.067265891 0.082160175 0.21977137
-0.068971731 0.080136754 0.22006769
-0.070717372 0.077968836 0.22085921
-0.07233727 0.07677114 0.22087307
-0.14862722 -0.0094667003 0.22230394
-0.15259975 -0.013373613 0.22236322
-0.15371455 -0.015059477 0.22239521
-0.15521389 -0.017014384 0.22243014
-0.15711741 -0.019046579 0.22233772
-0.1586501 -0.020885956 0.2216209
-0.16058433 -0.02289108 0.22123981
-0.16220799 -0.024900608 0.22057228
-0.16357449 -0.027047578 0.22060147
-0.16400799 -0.02881052 0.22064282
-0.059974216 0.084676914 0.21879901
-0.061796308 0.083765492 0.21880323
-0.063556343 0.082383327 0.21951522
-0.065341011 0.080335729 0.22001013
-0.06709414 0.078466855 0.22047731
-0.068992466 0.076870166 0.22090653
-0.070566081 0.075970821 0.22091311
-0.15359026 -0.018882049 0.22249642
-0.15510631 -0.020735227 0.2225285
-0.15694232 -0.022749448 0.22223236
-0.15863925 -0.024569232 0.22159047
-0.16026405 -0.026639033 0.22091416
-0.16200128 -0.028691128 0.22066136
-0.16300333 -0.030660715 0.22070202
-0.058347039 0.083947659 0.21883564
-0.059891947 0.082442142 0.21893083
-0.061781086 0.080628395 0.22006394
-0.063503541 0.078787625 0.22076625
-0.065233231 0.077492945 0.22093077
-0.15080228 -0.019010769 0.22252989
-0.15175998 -0.020009015 0.22254559
-0.15361288 -0.022287676 0.22258514
-0.15502211 -0.024454102 0.22261117
-0.15676533 -0.026368462 0.22214641
-0.15849298 -0.028470814 0.22150783
-0.16001241 -0.030347496 0.22079857
-0.16178986 -0.032257512 0.22075681
-0.16249764 -0.033529963 0.2207824
-0.054744624 0.083273172 0.21889202
-0.056290701 0.082606524 0.21889283
-0.057991367 0.080690853 0.2192581
-0.059654977 0.078693584 0.22067873
-0.061212026 0.077762358 0.22096708
-0.15406328 -0.026352752 0.22268654
-0.15485547 -0.028061777 0.22272259
-0.15636121 -0.030025393 0.22210759
-0.15814543 -0.032052491 0.22127929
-0.15987426 -0.033933647 0.22083664
-0.16077167 -0.03552876 0.22085324
-0.052668326 0.082054615 0.21894628
-0.054667994 0.080920674 0.21930867
-0.056096122 0.078994587 0.22045977
-0.057907239 0.077520154 0.22100899
-0.15090215 -0.029036708 0.22279072
-0.15275702 -0.030100118 0.22279845
-0.15456119 -0.031805016 0.22271106
-0.15603817 -0.033703402 0.22198871
-0.15785025 -0.035396736 0.22156909
-0.15963592 -0.037789613 0.22096376
-0.160346 -0.039361652 0.22095793
-0.049348108 0.082073234 0.21898155
-0.05058438 0.081035301 0.21899536
-0.052368023 0.079237066 0.21973188
-0.054053895 0.077275097 0.22084257
-0.05592579 0.076766759 0.22105007
-0.14927714 -0.030196823 0.22283849
-0.15073249 -0.031673476 0.22284599
-0.15244094 -0.033612173 0.22284745
-0.15417922 -0.035323687 0.22211687
-0.15597132 -0.037335951 0.22195271
-0.15750048 -0.039242737 0.2212732
-0.15891761 -0.04081054 0.22101119
-0.049060591 0.079159677 0.21908459
-0.050332867 0.07769271 0.21997106
-0.052512843 0.076323122 0.22094452
-0.12308534 -0.0053325063 0.22247122
-0.12382948 -0.0059302305 0.22247881
-0.1479204 -0.031417418 0.22288501
-0.14908963 -0.033144917 0.22291751
-0.15073696 -0.035208747 0.22293551
-0.15236065 -0.037110001 0.22265248
-0.15393031 -0.039011247 0.22214352
-0.1557534 -0.041016567 0.22162598
-0.15716144 -0.04300281 0.22108738
-0.15767916 -0.044986919 0.22113359
-0.04500179 0.078866564 0.21911216
-0.046761602 0.077669039 0.219897
-0.04849118 0.076099448 0.22097208
-0.050083987 0.075420216 0.22114819
-0.14875542 -0.037258189 0.22302857
-0.15030387 -0.038859744 0.22305372
-0.15215904 -0.040849045 0.22275236
-0.15378167 -0.042716842 0.22208986
-0.15540591 -0.044608556 0.22133011
-0.15662929 -0.04634114 0.22118032
-0.04158698 0.078352123 0.21916236
-0.043271657 0.077821545 0.21915811
-0.044889491 0.076183997 0.22061795
-0.046302222 0.074995831 0.22120005
-0.048168246 0.072139181 0.22125453
-0.1449132 -0.038313031 0.22309761
-0.14670989 -0.038850788 0.22309221
-0.14839581 -0.04055335 0.22311853
-0.15016589 -0.0425089 0.22307807
-0.15160891 -0.044390235 0.22233072
-0.15351787 -0.046343453 0.22149974
-0.15500063 -0.048112538 0.22124416
-0.039620027 0.077380545 0.21920897
-0.041197196 0.076282747 0.21981823
-0.042827036 0.074365422 0.22069827
-0.044391736 0.072784707 0.22127831
-0.14079428 -0.037277278 0.22311492
-0.14455543 -0.03863059 0.22310975
-0.14542502 -0.039942134 0.22313459
-0.14665142 -0.042276848 0.22318235
-0.14823341 -0.044169091 0.22321473
-0.14979111 -0.046080071 0.22262281
-0.15169573 -0.048242833 0.22180475
-0.153322 -0.050128113 0.22131489
-0.037609059 0.076125287 0.21963857
-0.039181877 0.074557237 0.22056338
-0.040977255 0.072776482 0.221223
-0.042610846 0.071850203 0.22132199
-0.14484568 -0.044177357 0.22325145
-0.14627433 -0.045848545 0.22327971
-0.1480307 -0.047857489 0.2229968
-0.14976922 -0.049978744 0.22207384
-0.15140402 -0.051988959 0.22141448
-0.1524689 -0.053615466 0.22141519
-0.034199283 0.075771958 0.2193094
-0.035514936 0.074790262 0.21976557
-0.03731313 0.0728257 0.22080679
-0.038924113 0.070888802 0.22138675
-0.039799824 0.068739802 0.22143348
-0.040662955 0.067058079 0.22146815
-0.14288864 -0.046166584 0.22332452
-0.14424703 -0.047647994 0.22334857
-0.14604753 -0.049675208 0.22338215
-0.14780556 -0.051548865 0.22260253
-0.14945 -0.053560376 0.22166437
-0.15107243 -0.054525539 0.22145399
-0.032295432 0.074309245 0.21936813
-0.033584282 0.073050857 0.21992691
-0.035253156 0.071077108 0.22080596
-0.036902104 0.069092676 0.22145545
-0.038646042 0.06713447 0.22137672
-0.03977019 0.065858521 0.22150907
-0.13689026 -0.045007687 0.22335894
-0.13800901 -0.046147253 0.22337663
-0.14132115 -0.047451239 0.22337499
-0.14273036 -0.048895665 0.22339752
-0.14435087 -0.051473431 0.22344738
-0.14584282 -0.053414397 0.22281148
-0.14767736 -0.055426147 0.22221223
-0.1489448 -0.057345241 0.22155058
-0.14973535 -0.058964513 0.22158435
-0.030506399 0.072952218 0.21949185
-0.031545866 0.071366362 0.22017349
-0.033263534 0.069354333 0.22118224
-0.035035264 0.067418084 0.22151932
-0.036813546 0.06602481 0.22153656
-0.038516391 0.065152787 0.22154106
-0.13557647 -0.045692634 0.22339092
-0.13694119 -0.047007822 0.22341056
-0.14311658 -0.053921815 0.22352473
-0.14394543 -0.055246774 0.22314769
-0.14555269 -0.05711621 0.22189081
-0.1477353 -0.058543496 0.22159493
-0.14910823 -0.0593522 0.22160123
-0.020010918 0.078629516 0.21938759
-0.027926341 0.070964135 0.2195026
-0.029569261 0.06959223 0.22021554
-0.031371351 0.067637414 0.22112244
-0.032683585 0.066322148 0.22157331
-0.13934371 -0.05349293 0.22355415
-0.140094 -0.054932978 0.22358364
-0.14208432 -0.056999333 0.22337928
-0.14370993 -0.058829911 0.22229481
-0.14488348 -0.060868006 0.22186647
-0.14579214 -0.062717915 0.22172491
-0.019315589 0.078223519 0.21940571
-0.026515432 0.069704942 0.21955068
-0.027710699 0.067763805 0.22030765
-0.029475633 0.06596221 0.2215437
-0.03083583 0.064916044 0.22162999
-0.13911888 -0.056473386 0.22363441
-0.14020093 -0.05861035 0.22359283
-0.14162523 -0.06044117 0.22289664
-0.14357916 -0.062467266 0.22258133
-0.14506517 -0.06442073 0.22225697
-0.14593801 -0.065650538 0.22179992
-0.024402972 0.067378178 0.21963423
-0.025833763 0.066179499 0.22071315
-0.027558114 0.064330652 0.22168054
-0.029283736 0.063782133 0.22167635
-0.072550751 0.012826539 0.22192997
-0.073369242 0.011984448 0.22255448
-0.13660815 -0.059617486 0.22374366
-0.13818851 -0.0602763 0.22374375
-0.13985443 -0.062178954 0.22321296
-0.14154823 -0.064195357 0.2227215
-0.14329371 -0.066023454 0.22227263
-0.14442514 -0.067014493 0.22185189
-0.020307545 0.066644475 0.21969749
-0.022137195 0.066189215 0.21997193
-0.023893397 0.064384013 0.22106473
-0.025620807 0.062727854 0.22174329
-0.071707264 0.012018732 0.2215711
-0.072681613 0.010356327 0.22256988
-0.073751047 0.0085930945 0.22263892
-0.13533612 -0.060746543 0.22378686
-0.13630252 -0.062042743 0.22381023
-0.13786986 -0.063906342 0.22315961
-0.13957399 -0.065959178 0.2224436
-0.14113703 -0.067837432 0.22190882
-0.14197186 -0.069260262 0.221937
-0.018646646 0.065727763 0.21973938
-0.020095959 0.064508989 0.22025587
-0.021926299 0.0625422 0.22114787
-0.0235596 0.060936898 0.22181228
-0.13270807 -0.063150264 0.22387797
-0.13426435 -0.063768417 0.22387727
-0.13595173 -0.065797806 0.22361794
-0.13760105 -0.067790098 0.22260858
-0.13921836 -0.069542892 0.22197406
-0.14063054 -0.070255853 0.22197741
-0.017617904 0.064679481 0.21977782
-0.018289447 0.062881999 0.22030962
-0.019958306 0.060850807 0.22130398
-0.021236066 0.059529848 0.22187409
-0.13062504 -0.064028859 0.22392328
-0.13222586 -0.065568805 0.22394626
-0.13394798 -0.067502484 0.22351569
-0.1356288 -0.069384977 0.22248386
-0.13687514 -0.070992917 0.22203718
-0.016452353 0.060957037 0.22004396
-0.018063761 0.059164554 0.22119939
-0.019411288 0.05747439 0.22194745
-0.12339783 -0.060111411 0.22389886
-0.12411045 -0.061113849 0.22391738
-0.12940706 -0.06556236 0.22397649
-0.13031781 -0.067262396 0.22401106
-0.13207765 -0.069233477 0.22366856
-0.13382336 -0.071084991 0.22298601
-0.13535483 -0.072996661 0.22245747
-0.13635349 -0.074555017 0.22213584
-0.013206452 0.060468227 0.21993537
-0.014529154 0.059542254 0.22026217
-0.016135965 0.057480402 0.22142693
-0.017736126 0.055841193 0.22200814
-0.12885943 -0.068898022 0.22406952
-0.1301074 -0.070840612 0.22355673
-0.13183548 -0.072765402 0.22313832
-0.13361444 -0.074782133 0.22295381
-0.13492562 -0.076080225 0.2222411
-0.011233263 0.058888242 0.21999793
-0.012411043 0.057741046 0.22052832
-0.014179356 0.055874981 0.22158967
-0.016021531 0.055422686 0.22203763
-0.12702265 -0.071563587 0.224159
-0.12821317 -0.072542101 0.22364661
-0.12993672 -0.074450724 0.22320281
-0.13155459 -0.076406784 0.22267298
-0.13279204 -0.077635743 0.22225471
-0.0088161379 0.056613617 0.22008337
-0.010538206 0.055816539 0.22025013
-0.012241311 0.054045577 0.22147317
-0.013304822 0.052109078 0.22215341
-0.12512317 -0.072939411 0.22421537
-0.12638125 -0.074335821 0.22407609
-0.12787887 -0.076354831 0.2230695
-0.12955388 -0.078070216 0.22239962
-0.13064314 -0.079261519 0.22232033
-0.007844381 0.055642471 0.22011922
-0.008497715 0.054261468 0.22014827
-0.010275148 0.05240538 0.22115952
-0.011968911 0.050353762 0.22221364
-0.1204839 -0.073058628 0.22426847
-0.12252018 -0.074419275 0.22428204
-0.12427878 -0.076029405 0.22405158
-0.12600204 -0.078021564 0.22309148
-0.12779132 -0.079577371 0.22240378
-0.12917581 -0.080423109 0.22236645
-0.0067258477 0.052514598 0.220213
-0.0082928538 0.050606627 0.22101973
-0.0099103004 0.048625901 0.22223479
-0.010083906 0.046740316 0.22232842
-0.11735384 -0.072767489 0.22429462
-0.11873847 -0.073914833 0.22430961
-0.12055984 -0.076014429 0.22428603
-0.12223625 -0.077701941 0.22356814
-0.12403461 -0.079838045 0.22329597
-0.12555851 -0.081466585 0.22256184
-0.12598738 -0.083253175 0.22247474
-0.0048091859 0.050674409 0.22028172
-0.0062323883 0.048896715 0.2211545
-0.0080030933 0.046885364 0.22221464
-0.0088974163 0.04549031 0.22237384
-0.11650012 -0.073555708 0.22432442
-0.11738631 -0.07576023 0.2243724
-0.11873642 -0.077740975 0.22424954
-0.12036279 -0.079441838 0.22350885
-0.12214281 -0.081541389 0.22309972
-0.12374444 -0.083343357 0.22250131
-0.12475874 -0.084610507 0.22252348
-0.0028201118 0.048699316 0.22044173
-0.0043891147 0.047237266 0.22130407
-0.0061683655 0.045234013 0.22186814
-0.0074740872 0.043402161 0.22244367
-0.11543454 -0.078044936 0.22445312
-0.1167487 -0.079330117 0.22445714
-0.11843164 -0.081176564 0.22389498
-0.12014155 -0.083149314 0.22304183
-0.12173344 -0.085057959 0.22256777
-0.12314881 -0.085843094 0.222573
-0.0010059625 0.047220852 0.22041292
-0.0024819598 0.04544434 0.22092474
-0.0041586906 0.043479778 0.22190768
-0.0059359074 0.041565724 0.22250822
-0.11378919 -0.079627968 0.22451222
-0.11481483 -0.081022859 0.22453758
-0.11655569 -0.08306317 0.22418839
-0.11821824 -0.084908485 0.22322278
-0.11973208 -0.086232871 0.22262003
0.00019770116 0.045346685 0.22047485
-0.00053042173 0.043681283 0.22077453
-0.0022044629 0.041727681 0.22158884
-0.0039188713 0.039919797 0.22231264
-0.0049253628 0.038621482 0.22259609
-0.11165357 -0.081482939 0.2245837
-0.11290678 -0.082716458 0.22460239
-0.11451034 -0.084671348 0.22406648
-0.11623225 -0.086642839 0.22319369
-0.1172976 -0.08782497 0.22268784
0.001065135 0.041722834 0.22099574
-0.00023945421 0.040000618 0.22164065
-0.0021523759 0.038275674 0.22247095
-0.0030288175 0.036994964 0.22265904
-0.1073011 -0.08096721 0.22461711
-0.1091982 -0.082382828 0.22463363
-0.11094531 -0.084490597 0.22422539
-0.11263186 -0.086353853 0.22382358
-0.11420894 -0.088334396 0.22308686
-0.11542424 -0.08970274 0.22275709
0.0030025393 0.039759696 0.22075745
0.0016752481 0.038318753 0.22150095
-0.00011711568 0.036473323 0.22240521
-0.0014975891 0.034488328 0.22274093
-0.10625839 -0.082006484 0.22465551
-0.10704581 -0.084218018 0.22470476
-0.10892946 -0.086191691 0.22415064
-0.11072259 -0.088318713 0.22352511
-0.11226329 -0.090087973 0.222846
-0.11347298 -0.091344178 0.22282098
0.0044924766 0.037966039 0.22071394
0.0034849495 0.036447525 0.2209193
0.0018435195 0.034629498 0.22188582
0.00024022162 0.032671638 0.22280712
-0.00076061487 0.031158518 0.2228359
-0.10340118 -0.085151896 0.22476852
-0.10517595 -0.086006574 0.22471365
-0.10705215 -0.08777988 0.2238532
-0.10872487 -0.089847736 0.22327082
-0.11037544 -0.091830902 0.22286709
-0.11168142 -0.092825755 0.22287898
0.0055309683 0.036530081 0.2207626
0.0052965358 0.034691907 0.22080813
0.003738746 0.032835733 0.22165281
0.0021708757 0.030957635 0.22269358
0.00073780864 0.029199921 0.22290318
-0.10173869 -0.086087339 0.22481079
-0.10327922 -0.087780491 0.22467171
-0.10497904 -0.089600071 0.22386754
-0.10677234 -0.091602869 0.22344139
-0.10835502 -0.093144313 0.22292316
0.0069000125 0.032791618 0.22087505
0.0057308301 0.031066906 0.22164403
0.0040621832 0.029199444 0.22264209
0.0024216026 0.027544301 0.22296457
-0.099627189 -0.087556139 0.2248719
-0.10109469 -0.089197606 0.2242038
-0.10305208 -0.091471575 0.22368994
-0.10492584 -0.093031384 0.22300982
-0.10666262 -0.094070524 0.22296558
0.0081092566 0.031158391 0.22093074
0.007566154 0.029288884 0.22125596
0.0058806539 0.027416985 0.22213364
0.0045511797 0.025756348 0.22280161
-0.095917448 -0.087501585 0.22491045
-0.09761183 -0.089083001 0.2249032
-0.099169388 -0.090935133 0.22424003
-0.10116252 -0.093187191 0.22363646
-0.1024359 -0.094409525 0.22301999
0.009461239 0.027487189 0.22104123
0.00793688 0.025751665 0.22180739
0.0060472265 0.023782689 0.22264239
0.0048752874 0.022074461 0.22313392
-0.094065972 -0.088864349 0.22490717
-0.095724821 -0.090703309 0.22428362
-0.097346418 -0.092889607 0.22384891
-0.099248797 -0.094430462 0.22347324
-0.10099591 -0.09529914 0.2230587
0.010599993 0.025801063 0.22109754
0.009709768 0.024024535 0.22127731
0.0080310628 0.022101667 0.22219199
0.0063541904 0.020175699 0.22306509
