# .PCD v0.7 - Point Cloud Data file format
VERSION 0.7
FIELDS x y z
SIZE 4 4 4
TYPE F F F
COUNT 1 1 1
WIDTH 1342
HEIGHT 1
VIEWPOINT 0 0 0 1 0 0 0
POINTS 1342
DATA ascii
-0.056420781 -0.11173344 0.2149381
0.0080006868 0.048978042 0.21463783
0.0077280477 0.047056809 0.21465221
0.0078487173 0.045564689 0.21465723
-0.049053032 -0.10493481 0.21647295
-0.050505452 -0.10616444 0.21646887
-0.051667996 -0.10816698 0.21592091
-0.052750539 -0.1103237 0.21556957
0.0091537088 0.045897834 0.21463065
-0.047438562 -0.10517849 0.21644321
-0.048296142 -0.10683121 0.21609405
-0.049181484 -0.10913689 0.21551101
0.012229666 0.042146783 0.21458982
0.011645146 0.040271632 0.21461008
-0.044831689 -0.10575651 0.21639603
-0.045828938 -0.10764767 0.21623759
-0.046490751 -0.10960951 0.21606176
0.013506144 0.041122843 0.21457043
0.013344444 0.03929298 0.2145822
0.012982152 0.037118487 0.21459968
-0.041223325 -0.10436536 0.21632028
-0.042357542 -0.10634267 0.21601819
-0.043410569 -0.10865575 0.21629661
-0.044318236 -0.11043465 0.21640882
0.015321516 0.038253613 0.21450396
0.014778771 0.036077213 0.21457028
0.014366463 0.034223661 0.2145872
-0.038146146 -0.10282217 0.21625394
-0.039141849 -0.1048052 0.21622987
-0.040247124 -0.10690224 0.21561068
-0.040905353 -0.1092709 0.21617122
-0.042499408 -0.11044538 0.21637413
0.017225832 0.03668692 0.21452063
0.017147176 0.035129316 0.21452953
0.016758613 0.032922734 0.21454765
0.016852938 0.030616634 0.21455707
-0.034298111 -0.10159002 0.21617441
-0.035688881 -0.10328221 0.21620907
-0.03673527 -0.10578981 0.21591465
-0.037819348 -0.10775562 0.21554069
-0.039127067 -0.10963379 0.2163057
0.01844611 0.033616643 0.21451209
0.018398806 0.031517096 0.21452305
0.018092819 0.029727329 0.21453756
-0.031189125 -0.099930555 0.21598178
-0.032358062 -0.10186844 0.2157539
-0.033320922 -0.10412006 0.2156316
-0.034537479 -0.10623872 0.21575688
-0.035842132 -0.10796295 0.21523455
0.019903101 0.030170005 0.21450084
0.019505315 0.029338468 0.2145125
0.020445019 0.026074167 0.21451025
-0.02802654 -0.098530293 0.2160396
-0.029066406 -0.10036784 0.2155989
-0.030029457 -0.10277902 0.2150984
-0.030918367 -0.10417497 0.21512204
0.02212321 0.02647857 0.2144762
0.021688275 0.025069311 0.21449119
0.0212337 0.022778913 0.21451096
0.021256886 0.02065289 0.21452089
-0.023128338 -0.095538437 0.2159314
-0.024452787 -0.096890256 0.2159632
-0.025616378 -0.098771125 0.21576561
-0.026740655 -0.10098977 0.21528928
-0.028017096 -0.10297146 0.21506071
0.023623303 0.023989841 0.21445945
0.02323848 0.021652292 0.21447802
0.02239231 0.019223569 0.21450594
0.022166349 0.01732347 0.21451959
-0.019634999 -0.09337759 0.21585411
-0.021272235 -0.095209599 0.21587598
-0.022251751 -0.097322077 0.21586427
-0.023365758 -0.099471226 0.21531199
-0.024586469 -0.10073581 0.21498422
0.025243938 0.020576034 0.21444485
0.024633579 0.018303687 0.21446748
0.023842044 0.016022693 0.21449365
0.023853652 0.014012445 0.21450329
-0.016706392 -0.09211129 0.21579194
-0.018052239 -0.093415201 0.21582389
-0.019046806 -0.09578076 0.2154322
-0.0199265 -0.098154813 0.2149606
-0.021324616 -0.099312335 0.2159151
0.026035562 0.016961079 0.21444729
0.026038297 0.015017269 0.21445647
0.025324792 0.012578283 0.21448189
0.024964564 0.010101739 0.2145008
0.024982713 0.0083383434 0.21450904
-0.012199033 -0.088172719 0.21568666
-0.013190743 -0.089797914 0.2157134
-0.01444884 -0.092199713 0.21528867
-0.015710212 -0.094219819 0.21536407
-0.016527887 -0.096541867 0.21551251
-0.018113457 -0.098510399 0.21484964
0.02767314 0.013514681 0.21443257
0.027418025 0.011561697 0.21444677
0.02668111 0.0093684308 0.21447147
0.026195489 0.0071544796 0.21449158
-0.0088535845 -0.086760625 0.21561581
-0.01028432 -0.088154867 0.21564983
-0.011396408 -0.090383604 0.21515924
-0.012484178 -0.092636868 0.21472898
-0.01378189 -0.094936773 0.2147494
-0.014897145 -0.096584633 0.21477874
0.027843274 0.0076866373 0.21445744
0.027994275 0.006184591 0.21446171
0.02750992 0.003099449 0.21448587
0.02685608 0.00092729088 0.21450889
0.026572324 -0.00093585253 0.2145234
-0.005501315 -0.084713846 0.21533342
-0.0069173202 -0.086638123 0.2152314
-0.0079850741 -0.088755473 0.21490996
-0.0089499131 -0.091218948 0.21466123
-0.010069571 -0.092512846 0.21466668
0.028932452 0.0021837912 0.21446313
0.028646775 1.3765879e-05 0.21447898
0.027982511 -0.0023168605 0.21446185
0.027311288 -0.004769498 0.21446703
0.026771046 -0.0073858495 0.21455067
0.026424609 -0.0094015282 0.21456711
-0.0006274879 -0.078090638 0.21541643
-0.0013783202 -0.080119312 0.21516638
-0.0027847663 -0.082946435 0.21511607
-0.0039632916 -0.084832609 0.21472274
-0.0048660636 -0.087091267 0.21456055
-0.005854059 -0.089621797 0.21457212
-0.0068099275 -0.091298461 0.21459845
0.029471897 -0.0031990465 0.21368703
0.029291324 -0.0057619978 0.21362397
0.028677858 -0.0082374662 0.21400684
0.027715333 -0.010583733 0.2144326
0.027256295 -0.013041035 0.2145687
0.026765198 -0.015373843 0.21458943
0.0030396283 -0.074804008 0.21533047
0.0025926009 -0.076232433 0.2153458
0.0015568882 -0.078501776 0.21537657
0.000623703 -0.080884382 0.21468507
-0.00067881495 -0.083175659 0.21452393
-0.0020824894 -0.085469648 0.21447982
-0.0029396862 -0.086923033 0.21450323
0.030185387 -0.0073169498 0.21248467
0.029812828 -0.0086589381 0.21249825
0.02907864 -0.01132945 0.21357416
0.028840266 -0.014030438 0.21454309
0.028033279 -0.016326306 0.21456963
0.02727773 -0.018705729 0.21459557
0.026818678 -0.021539379 0.21461813
0.026013598 -0.023775598 0.21464437
0.025487036 -0.0258964 0.2146647
0.0079399496 -0.070125952 0.215214
0.0073441863 -0.071220979 0.21523076
0.0059993118 -0.076038033 0.21527977
0.0045785755 -0.076965675 0.21503264
0.0036093965 -0.079332843 0.21481901
0.0025347248 -0.081474721 0.21457672
0.0016726851 -0.083075121 0.21439637
0.030255556 -0.017385375 0.21453223
0.029557236 -0.019743066 0.21455693
0.028611183 -0.02221339 0.21458697
0.027785271 -0.024664614 0.21450216
0.026858181 -0.027061772 0.2143493
0.026167475 -0.029471461 0.21451163
0.025345549 -0.03190681 0.2146963
0.024517417 -0.034600854 0.214451
0.023449168 -0.036849029 0.21429072
0.022933222 -0.039323095 0.21459223
0.022354238 -0.041089885 0.21479803
0.020257585 -0.04750745 0.21486911
0.019979343 -0.048234019 0.21487795
0.012124412 -0.066358551 0.21511573
0.011197902 -0.068421513 0.21514337
0.0094019398 -0.069926478 0.21518517
0.0067257807 -0.076316386 0.21526721
0.0064583644 -0.076797158 0.21527465
0.031622306 -0.01870133 0.21451251
0.031064257 -0.020376053 0.21453132
0.030064143 -0.022770122 0.21456198
0.029139154 -0.025463868 0.21414818
0.02832675 -0.027608017 0.21328506
0.027409047 -0.030124692 0.2138221
0.026834272 -0.032808777 0.21433122
0.026410371 -0.035145849 0.21379453
0.025489815 -0.03763137 0.2137212
0.02452673 -0.04013551 0.2138503
0.023958616 -0.042599805 0.21444945
0.023187585 -0.045351304 0.21461648
0.021934152 -0.047407448 0.21438909
0.021172844 -0.048799079 0.21475258
0.013460957 -0.066299371 0.21508993
0.027318619 -0.037059162 0.21368334
0.025934346 -0.040673852 0.2137273
0.025149897 -0.043358445 0.21470787
0.024321318 -0.045460857 0.21464509
0.023221195 -0.047758628 0.21381342
-0.15948501 0.022348627 0.21897218
-0.16108218 0.017288947 0.21902719
-0.14921543 0.040988598 0.21868563
-0.15033397 0.038067792 0.21872112
-0.15196711 0.035313707 0.21876571
-0.1525729 0.033381391 0.21902357
-0.15381546 0.030785184 0.21900308
-0.15465882 0.028590508 0.21899791
-0.15575454 0.026221704 0.21890143
-0.1566509 0.023739502 0.21923018
-0.157709 0.021429311 0.21926095
-0.15842178 0.019054167 0.2190267
-0.15961416 0.016782284 0.21900165
-0.16016735 0.014139283 0.21902497
-0.16095513 0.011557467 0.21905248
-0.16182625 0.0090674572 0.21908116
-0.16271695 0.0072017387 0.2191072
-0.14345513 0.048159759 0.21854076
-0.14430523 0.046727054 0.21856394
-0.14549321 0.04448279 0.21859761
-0.14682673 0.042125676 0.21891397
-0.14791031 0.039950717 0.21900329
-0.14892361 0.037567712 0.21916094
-0.14981681 0.035115376 0.21939223
-0.15070999 0.032747265 0.21965154
-0.15171397 0.030186512 0.21969996
-0.15265709 0.027839832 0.2196918
-0.15379933 0.025723293 0.21946619
-0.15526022 0.023176715 0.21978745
-0.15594198 0.020883601 0.21991162
-0.15704061 0.019246249 0.21934044
-0.15906873 0.013045466 0.21905082
-0.15926787 0.010824511 0.21965203
-0.15997708 0.0084639527 0.21942678
-0.16086054 0.0059355386 0.21928442
-0.1615994 0.0034839865 0.21915226
-0.16233772 0.00099216774 0.21912999
-0.16289723 -0.0013419921 0.21915193
-0.16370764 -0.0040343786 0.21918038
-0.16403636 -0.0055831186 0.21919416
-0.1395146 0.052896496 0.21844247
-0.14039131 0.050955508 0.21850954
-0.14151433 0.04845297 0.21886078
-0.14269921 0.046327949 0.21907689
-0.14367884 0.043984093 0.21926385
-0.14457984 0.041465778 0.21959466
-0.145684 0.039157182 0.21962704
-0.1469897 0.036916599 0.2196629
-0.14794567 0.03446373 0.21969302
-0.14851475 0.031842291 0.2197165
-0.1496875 0.029749699 0.21974912
-0.15091744 0.027699649 0.21978256
-0.15797228 0.0095706414 0.22000512
-0.15838483 0.0078586861 0.22002123
-0.15909931 0.0050207097 0.2200487
-0.15975201 0.0027833171 0.21991189
-0.16058785 0.00017751008 0.21975125
-0.16129726 -0.0022803172 0.21962593
-0.16213813 -0.0047426708 0.2192682
-0.16284803 -0.0069954153 0.21917833
-0.16318783 -0.0098570157 0.21919854
-0.16425817 -0.012866812 0.21923356
-0.16449639 -0.013780348 0.21924254
-0.13318975 0.060973387 0.21828242
-0.13409156 0.059602361 0.21830632
-0.13517451 0.057321053 0.21833812
-0.13630058 0.054889407 0.21845146
-0.13739598 0.052460466 0.21909653
-0.13870215 0.050476886 0.21930434
-0.13979745 0.048048481 0.21947151
-0.14098445 0.04571759 0.21950546
-0.14180285 0.04302913 0.21953413
-0.14246285 0.040968794 0.21955667
-0.14382118 0.039492059 0.2195898
-0.15880997 -0.001317367 0.22007371
-0.15941891 -0.0031668888 0.22009434
-0.16031086 -0.005246439 0.21996753
-0.16089551 -0.0079785921 0.21951081
-0.16175047 -0.010419782 0.21957925
-0.1625101 -0.012932684 0.21935773
-0.16312581 -0.014944926 0.21922201
-0.12961063 0.062448982 0.21820679
-0.13117954 0.061184276 0.21831983
-0.13232632 0.059076477 0.2188485
-0.13336265 0.056740936 0.21917833
-0.13462791 0.054432619 0.2192473
-0.13566992 0.052107375 0.21937291
-0.1366916 0.050785493 0.21939883
-0.1595256 -0.0091329301 0.22012515
-0.15959844 -0.011241089 0.22013667
-0.16036755 -0.013881027 0.21995713
-0.16096736 -0.016286783 0.2193559
-0.16170543 -0.018662335 0.2192886
-0.16241017 -0.021117747 0.21923815
-0.16267946 -0.023222178 0.21925333
-0.12622784 0.064636171 0.21813148
-0.12802202 0.062583283 0.21843076
-0.12889604 0.060568687 0.21908462
-0.13000502 0.058472056 0.21923374
-0.13124327 0.056846548 0.21926528
-0.15874986 -0.015236618 0.22013976
-0.15922368 -0.017288599 0.22015877
-0.1597452 -0.019661922 0.22007237
-0.16048214 -0.022043906 0.21967559
-0.16105822 -0.024294127 0.21930605
-0.16133618 -0.026953358 0.21924564
-0.12217577 0.068308622 0.21803617
-0.12331499 0.066337138 0.21816438
-0.12463931 0.064497858 0.21864732
-0.12606414 0.062016781 0.21914116
-0.12708789 0.060177203 0.21916962
-0.15835817 -0.021024857 0.22016023
-0.15863577 -0.022872679 0.22017449
-0.15917411 -0.025326896 0.21995898
-0.16001746 -0.027813692 0.21978463
-0.16050054 -0.030165961 0.21938322
-0.1611771 -0.032726698 0.21927053
-0.117388 0.072503015 0.21792431
-0.1189059 0.07028839 0.21796413
-0.12020846 0.068040967 0.21825802
-0.12129862 0.066231325 0.21889105
-0.12267335 0.064428091 0.21906462
-0.15778591 -0.026854228 0.22017741
-0.15780887 -0.028841453 0.22018738
-0.15851197 -0.031267971 0.21991707
-0.15921463 -0.033654243 0.21943037
-0.15971726 -0.035908893 0.219258
-0.11440332 0.07359232 0.21786191
-0.11579435 0.071967572 0.21791826
-0.1168409 0.069778219 0.21819295
-0.11785658 0.067480907 0.21872684
-0.11909413 0.06616056 0.21898778
-0.1563029 -0.030451933 0.22016641
-0.15649983 -0.032000102 0.22017767
-0.15716232 -0.034707822 0.22015491
-0.15774393 -0.036905073 0.21945481
-0.15825492 -0.039173886 0.21924578
-0.11036037 0.078189969 0.2177624
-0.11161427 0.075998023 0.21796374
-0.1126176 0.073694095 0.21808454
-0.1136836 0.071352333 0.21859653
-0.11456102 0.068879589 0.21888781
-0.11619959 0.067425743 0.21892628
-0.15545431 -0.036218874 0.22017798
-0.15566146 -0.038021833 0.2200413
-0.15626565 -0.040145852 0.21986157
-0.15692481 -0.042741492 0.21936002
-0.15697655 -0.044573359 0.21924731
-0.10859171 0.077588156 0.21773152
-0.10940249 0.075409085 0.21849364
-0.11032484 0.072959423 0.21878701
-0.11142981 0.070422798 0.21882041
-0.11236908 0.068363547 0.21884848
-0.15401629 -0.039358553 0.22016563
-0.15404263 -0.041247889 0.22017518
-0.15498149 -0.043626718 0.21967448
-0.15572122 -0.045908902 0.21922983
-0.10260534 0.08224602 0.21759434
-0.10491243 0.078692064 0.21765575
-0.10596858 0.076739267 0.2179625
-0.10697715 0.074489489 0.21857853
-0.10844882 0.072744504 0.21875219
-0.15191478 -0.042317316 0.22013967
-0.15257834 -0.044605184 0.22000475
-0.1533525 -0.047008444 0.21965052
-0.15382017 -0.049257763 0.21937327
-0.15377875 -0.051380981 0.21921895
-0.1019995 0.082516283 0.21758144
-0.10179862 0.080708802 0.21758631
-0.10262252 0.078195497 0.21761435
-0.10348833 0.075928062 0.21839181
-0.10485943 0.074115157 0.21867688
-0.1510082 -0.045383919 0.22013716
-0.15145457 -0.048045997 0.22015861
-0.15200046 -0.050571658 0.21996027
-0.15239725 -0.052591752 0.21956587
-0.098144479 0.081572026 0.21751222
-0.099188671 0.07965222 0.217558
-0.10023158 0.077401847 0.21807241
-0.10126239 0.075816676 0.21859986
-0.14982215 -0.051583108 0.22014441
-0.15035161 -0.053717736 0.22016475
-0.15092924 -0.056083281 0.21946503
-0.15125678 -0.058175273 0.21920349
-0.095060512 0.082611457 0.21744816
-0.095945321 0.081286177 0.21751451
-0.09695331 0.078982517 0.21800201
-0.097882375 0.077122927 0.21852888
-0.14858827 -0.052931074 0.2201273
-0.14887415 -0.054596372 0.22014076
-0.14920866 -0.057072543 0.21983472
-0.14965802 -0.059405457 0.21930887
-0.14927407 -0.061480504 0.21918151
-0.09253262 0.081920087 0.21740313
-0.093434811 0.080297083 0.21786667
-0.094590418 0.078188121 0.21846065
-0.09591303 0.076927707 0.21849212
-0.14697596 -0.058513816 0.2201234
-0.14739525 -0.060501195 0.21973468
-0.14784077 -0.062745318 0.2192353
-0.089211673 0.083377376 0.21733253
-0.0899707 0.081636921 0.21780002
-0.091027915 0.079686344 0.21818878
-0.092417568 0.078365371 0.21841829
-0.14539745 -0.059539396 0.22009814
-0.14541313 -0.061645608 0.22010864
-0.14589822 -0.063875109 0.21969646
-0.14647952 -0.065726541 0.21914855
-0.086541139 0.082800388 0.21739858
-0.087750196 0.081007794 0.21824664
-0.089320824 0.079333082 0.21835433
-0.14356911 -0.063202083 0.22008081
-0.14381501 -0.064917907 0.21996672
-0.14405984 -0.066763774 0.21930733
-0.083287269 0.083992019 0.21721615
-0.084256135 0.082442507 0.21755812
-0.085237339 0.080663234 0.2182698
-0.14168882 -0.066553272 0.22006099
-0.14189255 -0.068062797 0.21952558
-0.14250529 -0.07040152 0.21909513
-0.0809239 0.083493769 0.21717343
-0.081807949 0.081623375 0.21778604
-0.082944147 0.080212966 0.21822803
-0.13967758 -0.067453369 0.22002687
-0.13963221 -0.069080211 0.21982685
-0.14036965 -0.071318962 0.21922091
-0.14035772 -0.073002502 0.21906649
-0.077589519 0.084517643 0.21710458
-0.07851924 0.083010197 0.21731159
-0.07951498 0.080936208 0.21805538
-0.13821253 -0.070328899 0.22001271
-0.13820407 -0.072390184 0.21964575
-0.13843274 -0.074325949 0.21914728
-0.073612109 0.085371703 0.21702433
-0.075077266 0.084219754 0.21705806
-0.076455973 0.082423076 0.21754314
-0.077600062 0.080878526 0.21812256
-0.13573769 -0.073583715 0.21998106
-0.13640061 -0.075505435 0.21938755
-0.073320068 0.08525981 0.21701929
-0.072874121 0.083290413 0.21713901
-0.073579133 0.081191227 0.21795945
-0.074059673 0.079170883 0.21806306
-0.1338298 -0.07448779 0.21994892
-0.13412879 -0.076634139 0.21960619
-0.1344406 -0.078665987 0.21920927
-0.070799157 0.082471684 0.21735962
-0.071362562 0.080461815 0.21800517
-0.072671019 0.079102084 0.21803679
-0.1317701 -0.077889174 0.21984768
-0.13239372 -0.079828247 0.21910889
-0.13219936 -0.081956491 0.21895356
-0.066608638 0.083060354 0.21690144
-0.067873508 0.081571445 0.21750878
-0.068868205 0.080297023 0.21795823
-0.12957229 -0.078957751 0.21986724
-0.13013282 -0.080965027 0.21927641
-0.13082658 -0.08305034 0.21893269
-0.063079923 0.084015638 0.2168293
-0.064671345 0.08282651 0.21701078
-0.065503441 0.081264317 0.21786216
-0.12729262 -0.080250546 0.2198516
-0.12794399 -0.082024395 0.2196883
-0.12852803 -0.084076151 0.21894822
-0.061509479 0.084139585 0.21679874
-0.062228084 0.082060248 0.2171431
-0.0630887 0.080552906 0.21784636
-0.12577243 -0.08106187 0.21982643
-0.12554809 -0.083020493 0.21979874
-0.12632146 -0.085001692 0.21907108
-0.12642695 -0.086646825 0.21886574
-0.058816217 0.083506718 0.21675029
-0.059689548 0.081517458 0.21752259
-0.12190112 -0.082553655 0.21975955
-0.12295134 -0.083959207 0.21950057
-0.12384366 -0.08611168 0.21885441
-0.12424643 -0.087916508 0.21883018
-0.056583211 0.082178563 0.21671392
-0.05723637 0.080754489 0.21749336
-0.1210628 -0.083001107 0.21974567
-0.12114927 -0.084682539 0.21975546
-0.12126112 -0.087003961 0.21962586
-0.12197022 -0.089523509 0.21881667
-0.052435867 0.082951665 0.21663071
-0.053927988 0.081738055 0.21693389
-0.054784138 0.080221355 0.21768905
-0.11660418 -0.084541187 0.21966776
-0.11765078 -0.086039573 0.21969505
-0.11899544 -0.088047147 0.21969032
-0.11989076 -0.090251729 0.21898171
-0.048011847 0.087100923 0.21752621
-0.049568027 0.085226178 0.21680026
-0.050559681 0.083375499 0.21659289
-0.051438298 0.081069246 0.217108
-0.052135065 0.079315946 0.21764271
-0.11607339 -0.084912881 0.2196594
-0.11619354 -0.086662069 0.21967015
-0.11649531 -0.088991344 0.21968707
-0.11740398 -0.091259092 0.21900117
-0.11692016 -0.093303964 0.21871592
-0.047024392 0.086695984 0.21750921
-0.04741833 0.084671482 0.21680309
-0.04810182 0.082463264 0.21655026
-0.048987783 0.080149561 0.2172544
-0.049534529 0.077939615 0.21759963
-0.11504829 -0.090385363 0.21966618
-0.11532171 -0.092367619 0.21898863
-0.11543737 -0.093963504 0.21869071
-0.045259591 0.083246857 0.21649192
-0.045778655 0.081554502 0.21651018
-0.046642207 0.079259247 0.21725996
-0.047578368 0.077121735 0.21756606
-0.11145132 -0.092002288 0.21960515
-0.11262546 -0.093349531 0.2190771
-0.1130608 -0.09508048 0.21865062
-0.043009251 0.082689077 0.21645163
-0.043393292 0.080567777 0.21646929
-0.044139024 0.078330159 0.21732147
-0.045253873 0.076989442 0.21752223
-0.11054836 -0.092280954 0.21958922
-0.1102742 -0.094361961 0.21934135
-0.11097672 -0.096358418 0.21861704
-0.039365739 0.0810325 0.21638982
-0.040756803 0.079489157 0.21648751
-0.041726671 0.077664956 0.21735339
-0.1067346 -0.093630075 0.21952271
-0.10774706 -0.095204413 0.21911778
-0.10852867 -0.097189263 0.21857417
-0.038348366 0.080745548 0.21637173
-0.038694754 0.07874532 0.21657458
-0.039180618 0.076438457 0.2173419
-0.039190616 0.074688643 0.2174173
-0.10472871 -0.093694553 0.21948472
-0.10549267 -0.09613587 0.21903539
-0.10620973 -0.098023474 0.21853381
-0.035949714 0.077475339 0.21634175
-0.036957916 0.075544655 0.21701418
-0.037644964 0.074019253 0.21739091
-0.10314093 -0.09736979 0.21916929
-0.103811 -0.099416852 0.21849467
-0.10423508 -0.100844 0.21850954
-0.032336198 0.078704178 0.2162666
-0.033531986 0.076754436 0.21644184
-0.034463633 0.074572355 0.21731299
-0.036169287 0.073643178 0.21736453
-0.10033835 -0.098402664 0.21914676
-0.10138919 -0.099862054 0.21845041
-0.030440237 0.078173816 0.21623291
-0.031282753 0.075945303 0.21625981
-0.032006375 0.073916093 0.2170593
-0.098128557 -0.099136353 0.21912841
-0.098698527 -0.10105629 0.2184047
-0.10039002 -0.10756469 0.21846841
-0.10086292 -0.10884537 0.21903929
-0.02811088 0.077086717 0.21619356
-0.028616816 0.074954763 0.21621358
-0.029107772 0.072961003 0.21679674
-0.094759308 -0.098465428 0.2193169
-0.095739275 -0.099990919 0.2191121
-0.096666187 -0.10186717 0.21836972
-0.099759534 -0.10778394 0.2184574
-0.099462785 -0.10959759 0.21849394
-0.025115591 0.075755522 0.21614261
-0.026198737 0.074070737 0.21617158
-0.027263511 0.071959943 0.21690521
-0.092438221 -0.099053636 0.21927525
-0.093389772 -0.10080786 0.21915554
-0.093694419 -0.10266957 0.21840495
-0.096067391 -0.10924889 0.21839379
-0.096683748 -0.11003853 0.21840949
-0.023217428 0.074986681 0.21611004
-0.023852386 0.073153093 0.21613109
-0.024609674 0.070810482 0.21667923
-0.025153119 0.069232807 0.21717493
-0.090494193 -0.099851668 0.2192419
-0.090852916 -0.10176621 0.21908587
-0.091812298 -0.10341512 0.21844222
-0.095408767 -0.1105898 0.21838768
-0.020923875 0.073966205 0.21607102
-0.021526068 0.072280318 0.21609078
-0.022331379 0.069924355 0.21677029
-0.022770271 0.068204552 0.2171343
-0.08843334 -0.10266122 0.21880899
-0.089505583 -0.10392001 0.21824247
-0.019562524 0.073035181 0.21604942
-0.01928458 0.071137488 0.21605337
-0.019930385 0.069016442 0.21661542
-0.020657826 0.067298353 0.21709827
-0.08503934 -0.10195419 0.2191477
-0.085988328 -0.10342418 0.21851772
-0.085626706 -0.10537833 0.21817529
-0.016583811 0.070367992 0.21600543
-0.017513499 0.067964241 0.2164374
-0.01783428 0.066096604 0.21705006
-0.082423285 -0.10224967 0.21909901
-0.083463535 -0.10431911 0.21849845
-0.084196173 -0.10612983 0.21815154
-0.014448673 0.069200054 0.21597017
-0.015172306 0.067002594 0.21600856
-0.015794411 0.064646706 0.21698615
-0.015462421 0.062679529 0.21702115
-0.079698928 -0.10154322 0.21904351
-0.080099121 -0.1029426 0.21905784
-0.081087999 -0.10533972 0.21854292
-0.081926793 -0.10677928 0.21811123
-0.012110792 0.068099767 0.21593072
-0.012693472 0.066048965 0.21595182
-0.013599306 0.063531414 0.21643698
-0.014205806 0.061980229 0.21700042
-0.077780403 -0.10397971 0.2190185
-0.078630708 -0.10625432 0.21841684
-0.079274818 -0.10781218 0.21806546
-0.0098236054 0.066671878 0.21589373
-0.010211125 0.065097809 0.21590891
-0.011221327 0.062528506 0.21616286
-0.01186049 0.060887981 0.21696086
-0.075348459 -0.10496363 0.21883172
-0.076225787 -0.10708006 0.21810499
-0.077640623 -0.1083546 0.21803682
-0.0081916377 0.065998718 0.21586576
-0.0079980195 0.06402652 0.21587171
-0.0088692382 0.061590452 0.21610285
-0.0094229467 0.059435155 0.21692117
-0.071215063 -0.10452467 0.21889552
-0.072948217 -0.10587989 0.21861084
-0.073840022 -0.10743754 0.21795973
-0.0056239888 0.062828273 0.21583205
-0.006362021 0.060758922 0.21586989
-0.0072173961 0.058530461 0.21662574
-0.0075537711 0.056745972 0.21689838
-0.069447704 -0.10488109 0.2186759
-0.070448801 -0.10655165 0.21811281
-0.071266487 -0.10808699 0.21791354
-0.0037776008 0.061832581 0.21580139
-0.0042989105 0.059985463 0.21582039
-0.0049489811 0.057375688 0.21598183
-0.0053267106 0.055555705 0.21673961
-0.065862596 -0.10343994 0.21878783
-0.067159913 -0.10536617 0.21857186
-0.067912422 -0.10710706 0.21784468
-0.0025825202 0.056170378 0.21580596
-0.0032846034 0.054284398 0.21645351
-0.0032596663 0.052505936 0.21683672
-0.063876867 -0.10387465 0.21873493
-0.064733602 -0.10606068 0.21823761
-0.065440625 -0.10780418 0.21780071
-0.00018510967 0.054954354 0.21576589
-0.00088753551 0.053238619 0.21612103
-0.001310803 0.051564056 0.21680394
-0.060255386 -0.10289054 0.21867785
-0.061339881 -0.1045479 0.2181873
-0.062396895 -0.10680975 0.21775468
-0.063652784 -0.10822964 0.21776848
0.0027566478 0.056109723 0.21570396
0.0025190264 0.054567929 0.21571608
0.0015655756 0.052305121 0.21583223
0.00089741498 0.050034784 0.21649362
0.00093057007 0.048185088 0.21677737
-0.057845395 -0.10325728 0.21863349
-0.058811106 -0.10534808 0.21810642
-0.060268115 -0.106861 0.21769708
0.0045015067 0.053337727 0.215684
0.0039540902 0.051444922 0.21570371
0.0031368211 0.049031939 0.21583395
0.0026904643 0.046667133 0.21675104
-0.05464901 -0.10224018 0.21856745
-0.055529222 -0.10390384 0.21859221
-0.056230653 -0.10565999 0.21829844
0.0069626495 0.052362878 0.21564163
0.0065169558 0.051407639 0.21565469
0.005053252 0.047596224 0.21570122
0.0046122968 0.045555647 0.216452
0.0045471117 0.043373052 0.21673134
-0.052196886 -0.10278238 0.21852306
-0.053028334 -0.10496075 0.21818772
-0.053991396 -0.10641527 0.21767168
0.0069624409 0.046191689 0.21567136
0.0069786683 0.044454582 0.21584171
0.006218031 0.042121001 0.21670538
0.0062111616 0.040429816 0.21671376
-0.048452429 -0.10190292 0.21844715
-0.049626336 -0.1036298 0.21821205
-0.050768323 -0.10528724 0.2176706
0.010451518 0.045304161 0.21560889
0.0093348473 0.043650143 0.21568315
0.0085695088 0.041263588 0.21639174
0.0078660548 0.039249521 0.21668781
-0.045202397 -0.10057883 0.21837857
-0.04635594 -0.1021044 0.21839184
-0.047331676 -0.10413341 0.21783923
-0.048849348 -0.10531899 0.21747111
0.01201088 0.044748545 0.21558174
0.011342302 0.042987097 0.2156031
0.010520279 0.040404372 0.21565133
0.010047525 0.038143307 0.21631795
0.010162696 0.036142714 0.21665883
-0.043087602 -0.10085696 0.21833946
-0.044099998 -0.10303499 0.21801983
-0.04495329 -0.10484788 0.21741763
0.011896543 0.038875066 0.21561226
0.011901744 0.036875866 0.21569091
0.011626653 0.034658678 0.21624899
0.011699729 0.032779325 0.21664564
-0.039309021 -0.099734589 0.21826169
-0.040531777 -0.10148287 0.21802811
-0.04182975 -0.10354806 0.21752234
-0.043161727 -0.1050421 0.2173609
0.013372205 0.035295207 0.2156013
0.013614334 0.033408053 0.21562631
0.01324591 0.031396642 0.21632758
-0.035617646 -0.098237336 0.21818383
-0.037136152 -0.10003646 0.21785787
-0.038263328 -0.10192952 0.21733998
-0.039758645 -0.10344322 0.21728806
0.015481681 0.032058593 0.21557653
0.015323311 0.030225351 0.2159701
0.015001751 0.02812326 0.2165737
-0.032932509 -0.096554652 0.21812437
-0.033872895 -0.09853135 0.21797842
-0.034938712 -0.10059802 0.21737663
-0.03612899 -0.1022438 0.21721278
0.019813813 0.032002516 0.21549389
0.017428033 0.029051963 0.21555391
0.016965434 0.026938044 0.21586052
0.016235933 0.024640355 0.21642064
0.016051322 0.022810455 0.21661049
-0.029359333 -0.095438957 0.21805052
-0.030485213 -0.097139239 0.21776694
-0.031738147 -0.099003136 0.21741009
-0.033127781 -0.10066678 0.21714774
0.020506673 0.031188253 0.21548457
0.020163253 0.027917802 0.21550703
0.019346461 0.025972325 0.21553211
0.018290244 0.023476329 0.21571931
0.017785236 0.021237105 0.21645051
0.017555036 0.01876884 0.21660119
-0.024554003 -0.09178932 0.21794099
-0.02538209 -0.09342432 0.21796466
-0.027017865 -0.095520288 0.2176225
-0.028192744 -0.097573593 0.21714145
-0.029661253 -0.098938718 0.21707305
0.021974735 0.027455457 0.21547452
0.020548776 0.025176696 0.21551278
0.020234793 0.022475384 0.21553193
0.019750267 0.020219021 0.21562462
0.019010678 0.017765442 0.21612939
0.018695392 0.015688412 0.21659426
-0.021438424 -0.090318307 0.21787424
-0.022750337 -0.091777697 0.21770933
-0.023802042 -0.093864217 0.21744342
-0.024913106 -0.09599714 0.21709923
-0.026351385 -0.097583249 0.21700315
0.021274142 0.019303288 0.21552725
0.02116286 0.016710741 0.21554205
0.020504564 0.01439975 0.21609825
0.020330369 0.012013031 0.21658069
0.020036839 0.010367677 0.21659429
-0.017058764 -0.086498544 0.21777198
-0.01818208 -0.088046983 0.21780097
-0.019471068 -0.090265051 0.21774247
-0.020457625 -0.092387557 0.21712627
-0.021705639 -0.094438627 0.21689916
-0.02302701 -0.09589842 0.21693142
0.022906378 0.015255721 0.21551555
0.022813328 0.013354538 0.21554281
0.021971129 0.011097267 0.2161251
0.021638289 0.0090626404 0.21656998
-0.015238196 -0.086687669 0.21768403
-0.016069427 -0.088347077 0.21735443
-0.017168213 -0.090991363 0.2170711
-0.018148173 -0.092486456 0.21682157
0.024092019 0.012191845 0.21550766
0.023932159 0.010073202 0.21554382
0.023501411 0.007876521 0.21583848
0.022745833 0.0048814975 0.21620153
0.022360079 0.0029377071 0.21658571
-0.0092028826 -0.080925211 0.21759471
-0.010261223 -0.082507774 0.21762262
-0.011464119 -0.084832445 0.21765687
-0.012746293 -0.087126374 0.21710794
-0.013986044 -0.089263588 0.21675083
-0.014911249 -0.090920687 0.21675202
0.025572836 0.0063929986 0.21550745
0.024922632 0.0042417347 0.21553032
0.024061769 0.0019045481 0.21595804
0.023486219 -0.00031352509 0.21644416
0.022941783 -0.0031830082 0.21660407
0.022652932 -0.0047721909 0.21661733
-0.0051016361 -0.077026814 0.21749739
-0.0061446726 -0.078532055 0.21752465
-0.0074268542 -0.08071436 0.21755965
-0.0085018575 -0.08318387 0.21749747
-0.0094478987 -0.085458204 0.21697418
-0.010560904 -0.087228149 0.21669866
0.028042533 0.0049950331 0.21546683
0.026881926 0.0036584688 0.21549554
0.0259578 0.00099810213 0.2155261
0.025415242 -0.0014084345 0.21566407
0.024523124 -0.0038098181 0.21591011
0.024013855 -0.006354019 0.21632294
0.023350939 -0.0087074907 0.21662296
0.022760846 -0.011183163 0.21664618
-0.00085430592 -0.072698198 0.2173952
-0.0020922869 -0.074518338 0.2174277
-0.0032387003 -0.076862097 0.21714507
-0.0041793585 -0.079099983 0.21734877
-0.0050915554 -0.081610098 0.21734814
-0.0061572567 -0.083838537 0.21702094
-0.007335566 -0.085750014 0.2165821
0.029573962 0.0043388829 0.21544066
0.02941639 0.0035581859 0.21544746
0.026765883 -0.0026051011 0.21552794
0.026234433 -0.0046406072 0.21554799
0.025644116 -0.0072374181 0.21566626
0.02499371 -0.0095245671 0.21588293
0.02417317 -0.012072176 0.21620117
0.02358336 -0.014562435 0.21659753
0.023043752 -0.017105209 0.21666943
0.022680312 -0.01895754 0.2166853
0.0045418963 -0.067005195 0.21726444
0.0042608604 -0.067739032 0.21727337
0.0023289695 -0.071026072 0.21732621
0.0010408238 -0.072714925 0.21692854
3.6306679e-05 -0.075293213 0.21716581
-0.0010620356 -0.07720831 0.21655296
-0.002542913 -0.079867825 0.2166049
-0.0034686327 -0.081882626 0.2168766
-0.0043337867 -0.083522886 0.21651387
0.026425347 -0.010635989 0.21557324
0.026263662 -0.013101307 0.21558836
0.025591992 -0.015517501 0.21570881
0.024815582 -0.017793342 0.21629544
0.024137214 -0.020282678 0.21624063
0.023532666 -0.023130827 0.21642822
0.022714421 -0.025340337 0.21671546
0.022435851 -0.027017221 0.21672888
0.020895943 -0.031111611 0.21677813
0.020158939 -0.032746986 0.21680006
0.019215651 -0.035380937 0.21683088
0.018508136 -0.037214924 0.21685329
0.0064571351 -0.067015797 0.21722786
0.0054002032 -0.069027051 0.21715903
0.0043909326 -0.071207747 0.21728757
0.003388986 -0.073738262 0.21667896
0.0015942976 -0.075913623 0.2163637
0.00091901422 -0.077385381 0.21638368
0.026860781 -0.01693223 0.2155953
0.026468031 -0.018657409 0.21561116
0.026033551 -0.021150086 0.21563162
0.025040746 -0.023730248 0.21575569
0.024344869 -0.026062205 0.21597879
0.023722351 -0.02853504 0.21630889
0.022802725 -0.031023024 0.21655187
0.021768227 -0.033368379 0.21647677
0.020731397 -0.035856813 0.21622272
0.01985988 -0.038233817 0.21642689
0.019267432 -0.040712252 0.21681641
0.018147014 -0.043352462 0.21688983
0.017382152 -0.045549661 0.2169151
0.017220236 -0.047257215 0.21692643
0.010221243 -0.066212326 0.21615173
0.0087391809 -0.067751363 0.21683548
0.0074772164 -0.069479704 0.21647504
0.0063161924 -0.072010867 0.21699882
0.0058584064 -0.074757263 0.21696079
0.0051982328 -0.076122209 0.2162957
0.025505908 -0.027466102 0.21567211
0.025056809 -0.029046873 0.21568832
0.024263494 -0.031908698 0.21571738
0.02360449 -0.03403832 0.21574031
0.022391267 -0.036536179 0.21577556
0.021807909 -0.039182507 0.21579956
0.021054529 -0.041624554 0.21617244
0.020308614 -0.044032287 0.21679281
0.019406699 -0.04648618 0.2164389
0.018798426 -0.048214298 0.21607931
0.010779642 -0.066269994 0.21614131
0.010411508 -0.067959934 0.21615657
0.0094547942 -0.069379702 0.21618168
0.0073664188 -0.075569615 0.21665904
0.02254501 -0.042873893 0.21580315
0.022197112 -0.044742141 0.21602952
0.021150842 -0.046618849 0.2158934
0.020124286 -0.048514888 0.21587673
-0.15175548 0.026872169 0.2208028
-0.1449002 0.038287263 0.22067535
-0.14659092 0.036636159 0.22065684
-0.14766921 0.034402214 0.22068825
-0.14829129 0.030618891 0.2207184
-0.14848997 0.029079743 0.2213131
-0.14995451 0.026870154 0.22094652
-0.15026432 0.024694007 0.22078481
-0.13760601 0.049639933 0.2204221
-0.13883577 0.047490213 0.220456
-0.13987669 0.04510216 0.2205784
-0.14067292 0.042945109 0.22051312
-0.14163238 0.040153801 0.22054496
-0.14307827 0.038161505 0.22114095
-0.14329751 0.036712795 0.2215936
-0.14417504 0.031791244 0.22196756
-0.14526255 0.030352455 0.22179526
-0.14667627 0.028335944 0.22224818
-0.14756754 0.02582683 0.22199668
-0.14855516 0.023800809 0.22159788
-0.15620147 0.00035458617 0.22201613
-0.1576685 -0.00094091333 0.22161795
-0.1576868 -0.0026824865 0.22165912
-0.15967616 -0.0088251 0.22112675
-0.1325209 0.05550934 0.22029641
-0.13352352 0.053768095 0.22032402
-0.13461575 0.051520262 0.22035578
-0.13582785 0.049311429 0.22052012
-0.13674517 0.046994191 0.22084105
-0.13781208 0.044419851 0.22142419
-0.13869222 0.041942813 0.2213939
-0.13960488 0.039559335 0.22137184
-0.14065556 0.037347909 0.2217401
-0.14158203 0.034736481 0.22255404
-0.1423499 0.032208819 0.22257948
-0.14340079 0.030012902 0.22248311
-0.14427489 0.027581967 0.22265652
-0.14526883 0.025068358 0.22266063
-0.14608029 0.022612832 0.22271506
-0.14610484 0.020672932 0.22272499
-0.14825198 0.014075218 0.22279792
-0.14917004 0.01206016 0.22282523
-0.1499299 0.010362674 0.22284797
-0.15177402 0.0071485825 0.22289874
-0.15257265 0.0054359902 0.22292225
-0.15308641 0.0031076437 0.22294335
-0.15437701 0.00064968783 0.22261783
-0.15535805 -0.0016639372 0.22233869
-0.15636244 -0.0040045297 0.22196041
-0.15656017 -0.0062345024 0.22187829
-0.15818825 -0.0090907924 0.2210996
-0.15852737 -0.011409493 0.22111729
-0.15904035 -0.013494442 0.22113717
-0.1293911 0.057620551 0.22022633
-0.1307063 0.055613849 0.2202612
-0.13178964 0.053146627 0.22067499
-0.13269161 0.050802257 0.22132275
-0.13350882 0.048473086 0.2215389
-0.13440149 0.046035882 0.22169793
-0.13545904 0.043689735 0.22217396
-0.13635918 0.041116789 0.22243966
-0.13732888 0.038584687 0.22247045
-0.13829747 0.03620898 0.22250046
-0.13935474 0.033806674 0.22253229
-0.14014812 0.031559303 0.22255832
-0.14136574 0.029137995 0.22259332
-0.14229985 0.026942059 0.22262181
-0.14317459 0.024203129 0.22265176
-0.14450395 0.021941267 0.22268815
-0.14527042 0.019764885 0.22271334
-0.14675567 0.014005072 0.22276956
-0.14751928 0.012128435 0.22279322
-0.1485392 0.010375062 0.22282122
-0.14995247 0.0062770825 0.22286808
-0.15033406 0.0046248082 0.22288333
-0.1512467 0.0022416711 0.2229123
-0.15215933 -0.00014143623 0.22294128
-0.15307197 -0.0025245799 0.22297025
-0.15399291 -0.004937558 0.2225785
-0.1548945 -0.0074331444 0.22207952
-0.15590224 -0.0099211596 0.22159347
-0.15673523 -0.01233788 0.22143893
-0.15760183 -0.014626719 0.22114637
-0.15804914 -0.017251646 0.22113635
-0.15860671 -0.019552195 0.22115812
-0.12406217 0.063196316 0.22009738
-0.12520939 0.061768886 0.22012627
-0.12622797 0.05944046 0.22031705
-0.12745355 0.057132002 0.22080585
-0.12853204 0.054726306 0.22089076
-0.12928516 0.052275408 0.22142613
-0.13028362 0.049931031 0.22217636
-0.13118145 0.047502168 0.22230974
-0.13209409 0.045119017 0.22233871
-0.13304652 0.042915709 0.22236757
-0.13464576 0.040406883 0.22241031
-0.13552803 0.038976412 0.22243415
-0.13815609 0.032411151 0.22251616
-0.13838425 0.031815365 0.22252341
-0.14557132 0.013048073 0.22275157
-0.1458565 0.012303341 0.22276062
-0.14903527 0.0038045626 0.22286251
-0.1496397 0.0013839584 0.22288571
-0.14986199 -0.0010843258 0.22290185
-0.15068917 -0.0034375759 0.22292905
-0.15160184 -0.0058207787 0.22295803
-0.15260842 -0.008383614 0.22261624
-0.15353099 -0.010866815 0.22201937
-0.15443917 -0.013238331 0.22204819
-0.15536736 -0.015563088 0.22163549
-0.15625405 -0.018076502 0.22142255
-0.15708916 -0.020530522 0.22128662
-0.15768752 -0.022974249 0.22115703
-0.15794872 -0.025216673 0.22117285
-0.12069093 0.064958423 0.22002439
-0.12214279 0.063303992 0.22006017
-0.12309459 0.061022323 0.22028682
-0.12404365 0.058757935 0.22144808
-0.12498024 0.056395259 0.22196059
-0.12582603 0.053815152 0.22217676
-0.12683557 0.051319506 0.22220813
-0.12803724 0.049275324 0.222241
-0.12974517 0.046644393 0.22228643
-0.13039303 0.0445811 0.22230877
-0.13134441 0.042884622 0.22233522
-0.14410755 0.0061675142 0.22275677
-0.14877841 -0.0024617221 0.22288784
-0.14866459 -0.0046007922 0.22289594
-0.1490701 -0.0067908252 0.22291425
-0.15011954 -0.0093656834 0.22285482
-0.15106666 -0.011841639 0.22267315
-0.15201372 -0.014025527 0.22241405
-0.15285936 -0.016640959 0.22249691
-0.15366626 -0.018918339 0.22211349
-0.15476894 -0.02147652 0.22204727
-0.15569785 -0.023930274 0.22170514
-0.1564225 -0.026251422 0.22126411
-0.15674099 -0.028665878 0.22116642
-0.11725993 0.066312358 0.21995215
-0.11868693 0.064817637 0.22007245
-0.11969685 0.062488463 0.22060087
-0.12072285 0.060130198 0.22094856
-0.12143864 0.057801288 0.22195233
-0.12233041 0.05545203 0.22210194
-0.12371667 0.053170133 0.22213949
-0.12480472 0.051220845 0.22216979
-0.14590454 -0.0058829887 0.22284931
-0.14695872 -0.0074739805 0.22287716
-0.14769557 -0.010426133 0.2229055
-0.14852127 -0.012745766 0.2229325
-0.14937228 -0.015212375 0.2229607
-0.15030298 -0.017591454 0.22298999
-0.15129763 -0.019929945 0.22281204
-0.15224901 -0.022414643 0.22266787
-0.15301076 -0.024868518 0.22221401
-0.15414301 -0.027337931 0.22203812
-0.15495515 -0.029726949 0.22147861
-0.15551656 -0.032278754 0.22116041
-0.15609926 -0.034543939 0.22118251
-0.11476015 0.067835197 0.21989694
-0.11536315 0.066422582 0.22000495
-0.1166208 0.064300522 0.22048312
-0.11733659 0.061657745 0.22179587
-0.11813022 0.059236493 0.22198741
-0.11906797 0.056885477 0.22203258
-0.12021529 0.055085685 0.22206324
-0.14591157 -0.011556877 0.22287685
-0.14677188 -0.012681653 0.2228988
-0.14732879 -0.016539864 0.22292802
-0.14816371 -0.018304352 0.2229525
-0.14912722 -0.020882856 0.22298339
-0.14974539 -0.023270745 0.22300676
-0.15078598 -0.025740534 0.22280484
-0.15153375 -0.028156683 0.22221333
-0.15265533 -0.030626463 0.22205323
-0.15363716 -0.032999001 0.22182442
-0.15433845 -0.035407215 0.22139627
-0.15453579 -0.037587889 0.22116728
-0.10966901 0.071635067 0.21978116
-0.11032662 0.070285887 0.21980031
-0.11184987 0.067446351 0.21993408
-0.1130624 0.065568224 0.22075225
-0.11394289 0.063124061 0.22179833
-0.11487831 0.060780045 0.22193359
-0.11622293 0.058711078 0.22196934
-0.11735198 0.057006072 0.22199924
-0.14801618 -0.024420422 0.22297922
-0.14827524 -0.026566863 0.22299452
-0.1493277 -0.029104698 0.22296202
-0.15009576 -0.031732641 0.22258559
-0.15104866 -0.0339716 0.22232999
-0.15211016 -0.036437519 0.22183317
-0.15296625 -0.038677413 0.22117585
-0.15309745 -0.040418498 0.22115341
-0.10652493 0.073221117 0.21971333
-0.10778441 0.071722955 0.21980923
-0.10877766 0.069453761 0.21995534
-0.10971825 0.067077294 0.22076641
-0.11070517 0.06471099 0.22161259
-0.11177649 0.06237923 0.2218665
-0.11284628 0.060930353 0.22189406
-0.14608979 -0.027867872 0.222959
-0.14686212 -0.030011959 0.22298412
-0.1478318 -0.032544069 0.22301489
-0.14874443 -0.034927208 0.22304387
-0.14970432 -0.037326455 0.22249252
-0.15068087 -0.039771393 0.22161707
-0.15110052 -0.041787941 0.22117311
-0.10289501 0.074677378 0.21963683
-0.10425286 0.073242486 0.21966977
-0.10537445 0.071092635 0.22033711
-0.10633869 0.068696275 0.22089376
-0.10736638 0.066192642 0.22161302
-0.10828493 0.063761711 0.221793
-0.14463133 -0.028646335 0.22293492
-0.1452239 -0.030639719 0.22295581
-0.14576888 -0.033594497 0.22298048
-0.14636157 -0.035840258 0.22300267
-0.1473933 -0.038295358 0.22293572
-0.14811227 -0.040667739 0.22230011
-0.14908074 -0.042980663 0.22191527
-0.14984713 -0.045803286 0.22139001
-0.15045086 -0.048079155 0.22113976
-0.15061411 -0.049811807 0.22115122
-0.099571034 0.075997144 0.21956682
-0.10096978 0.074682564 0.21959999
-0.10192926 0.072452039 0.21997587
-0.10300732 0.070335567 0.22066018
-0.10384813 0.06783773 0.22165507
-0.10494468 0.065390065 0.2217212
-0.10641436 0.063507393 0.22175847
-0.14447893 -0.037316032 0.22297379
-0.14489141 -0.039136499 0.22299045
-0.14583373 -0.041620038 0.22274053
-0.1465234 -0.044109192 0.22221965
-0.14754407 -0.046489418 0.22203061
-0.14853415 -0.04897356 0.22179438
-0.14897653 -0.051056314 0.22119412
-0.14887714 -0.05304822 0.22113359
-0.097756565 0.075983703 0.21953221
-0.098557718 0.074174538 0.21975978
-0.099611074 0.071293056 0.22114617
-0.10048298 0.069209501 0.22156183
-0.10161312 0.067087844 0.22164924
-0.10295456 0.065347239 0.22168337
-0.14273986 -0.038423624 0.22294588
-0.14270999 -0.040079862 0.22295326
-0.14331615 -0.042502195 0.22297655
-0.14420465 -0.044883963 0.22299136
-0.14499924 -0.047268193 0.22230245
-0.14600629 -0.049845997 0.22180262
-0.14691484 -0.052138887 0.22129425
-0.14778331 -0.054560699 0.22112
-0.14806539 -0.056599565 0.22113524
-0.094127141 0.077132881 0.21945718
-0.095356144 0.07550256 0.21988307
-0.096222334 0.073071927 0.22073804
-0.097059973 0.070654228 0.2215295
-0.09796042 0.068250299 0.22157373
-0.098487295 0.066663235 0.2215915
-0.14109865 -0.044192091 0.22294231
-0.14165324 -0.045842949 0.22296086
-0.14270794 -0.048278205 0.22269796
-0.14356279 -0.050697729 0.22213857
-0.14466891 -0.053137265 0.22194271
-0.14545767 -0.055428218 0.22136183
-0.1463666 -0.05777273 0.22110839
-0.090589918 0.078439787 0.21938318
-0.091982327 0.077058107 0.21983224
-0.092910953 0.074701622 0.2204306
-0.093783326 0.072202325 0.22072114
-0.094623081 0.069545984 0.2215036
-0.095716365 0.067854047 0.2215327
-0.13668221 -0.039752975 0.22283633
-0.13902122 -0.044809911 0.22290552
-0.13946968 -0.046780828 0.22292359
-0.14018306 -0.049139086 0.22294863
-0.14125216 -0.051710129 0.22285654
-0.14206623 -0.053960152 0.22213478
-0.14318469 -0.056512132 0.22175595
-0.14402211 -0.05895422 0.22108139
-0.1445439 -0.061445251 0.22109124
-0.14432764 -0.063248247 0.22109576
-0.087013602 0.07964237 0.21930888
-0.088397063 0.078147173 0.21934263
-0.089529723 0.076222196 0.22006831
-0.090459689 0.073669359 0.22055899
-0.091424093 0.071295291 0.22102608
-0.092621498 0.069125324 0.22146733
-0.093776718 0.067728981 0.22149622
-0.13800496 -0.050315268 0.22291262
-0.13876987 -0.052584182 0.22293822
-0.13978997 -0.05511139 0.22264104
-0.14076167 -0.057402164 0.22199969
-0.1415793 -0.059900902 0.22131467
-0.14249204 -0.062429409 0.22105671
-0.1427349 -0.064626187 0.22107197
-0.085233763 0.07953307 0.2192754
-0.08614552 0.077578276 0.21937478
-0.087230943 0.075197309 0.22051291
-0.088167503 0.07285665 0.22121477
-0.089323588 0.071032882 0.22139502
-0.13535079 -0.049453389 0.22285774
-0.13589481 -0.050725281 0.22287422
-0.13682479 -0.053511173 0.22290547
-0.13737985 -0.05603544 0.22291289
-0.13835478 -0.058433823 0.22244725
-0.1392557 -0.060999878 0.22180213
-0.14004394 -0.063280255 0.22108647
-0.14103618 -0.065693341 0.22104461
-0.1412496 -0.067133844 0.22105563
-0.081624985 0.080171049 0.2192032
-0.082836524 0.079002231 0.21923207
-0.083739318 0.0766045 0.2195944
-0.084538206 0.07412678 0.22100776
-0.085655898 0.072702006 0.22131677
-0.13581228 -0.057475109 0.22290529
-0.13595071 -0.059354041 0.22291695
-0.13669197 -0.061712418 0.22229257
-0.13767956 -0.064225003 0.22146176
-0.13865188 -0.066587597 0.2210187
-0.1389295 -0.068396717 0.22101735
-0.07925231 0.079761997 0.21915981
-0.08070983 0.077990323 0.21955051
-0.081323862 0.075666487 0.22068943
-0.082478091 0.073639736 0.2212514
-0.13190761 -0.058873657 0.22283731
-0.13326812 -0.060522672 0.22287124
-0.13435924 -0.062752537 0.22279042
-0.13510066 -0.065038055 0.22205977
-0.13621601 -0.067254618 0.22164759
-0.13706774 -0.07011348 0.22102922
-0.13717915 -0.071834616 0.22100043
-0.076152079 0.080949336 0.21909472
-0.076942749 0.07954213 0.21911666
-0.077950194 0.077219158 0.21985577
-0.078794234 0.074771494 0.22096114
-0.080358259 0.073632702 0.22121091
-0.12997782 -0.059387028 0.2228028
-0.13081932 -0.061281856 0.22281267
-0.13173525 -0.063698128 0.22281109
-0.13278714 -0.065900773 0.22208546
-0.13376179 -0.068412766 0.22191885
-0.13454744 -0.07072521 0.22123235
-0.13533148 -0.072687589 0.2209692
-0.074854374 0.078322947 0.21910639
-0.075494289 0.076487809 0.21998918
-0.077014104 0.074422434 0.22098921
-0.11424045 -0.026883107 0.22234474
-0.11472592 -0.027704831 0.22235799
-0.12827772 -0.060051542 0.22277349
-0.12876242 -0.062080618 0.22279254
-0.12957655 -0.064592689 0.22280207
-0.13043731 -0.066939548 0.22251475
-0.13125622 -0.069263786 0.22200003
-0.13227589 -0.071774609 0.2214815
-0.13291487 -0.074120924 0.22092988
-0.13269943 -0.076160625 0.22093555
-0.070953988 0.079479098 0.21900235
-0.072148584 0.077725813 0.21980603
-0.073172882 0.075630471 0.22088826
-0.074416965 0.074430645 0.22109336
-0.12699874 -0.065813199 0.2227768
-0.12788272 -0.067857996 0.22280359
-0.12892972 -0.070368551 0.22250248
-0.12981583 -0.072677739 0.22183691
-0.13069879 -0.075008333 0.22107355
-0.13123935 -0.07705836 0.22091196
-0.067577206 0.080200776 0.21893419
-0.068966441 0.079110503 0.21896608
-0.069847532 0.076984882 0.22042742
-0.070728585 0.075365916 0.22101825
-0.071466982 0.072034359 0.22104843
-0.12303141 -0.065446772 0.22269918
-0.12452292 -0.066583246 0.22273314
-0.12549989 -0.06877102 0.22276239
-0.12646917 -0.071224131 0.22272032
-0.12718578 -0.073481321 0.22196417
-0.12831613 -0.075968713 0.22113654
-0.1290905 -0.078142658 0.2208761
-0.065393969 0.079984382 0.2188935
-0.066459559 0.078391567 0.21951903
-0.067275748 0.07600911 0.22039349
-0.068160936 0.073969319 0.22097577
-0.11954261 -0.063025892 0.22262071
-0.12258463 -0.065617971 0.22269145
-0.12293566 -0.067152098 0.22270551
-0.12325967 -0.069769703 0.22272435
-0.12407248 -0.072098427 0.22275114
-0.12487996 -0.074426234 0.22215289
-0.12593205 -0.077108353 0.22133213
-0.12680879 -0.079437912 0.22083868
-0.063055068 0.079512015 0.21922606
-0.06393905 0.077475742 0.22015342
-0.064966574 0.075166196 0.22081655
-0.066164874 0.073722064 0.22093883
-0.12089959 -0.070912451 0.22268468
-0.1216469 -0.072980225 0.22270897
-0.12259386 -0.07547462 0.22242273
-0.12350924 -0.078057691 0.22149327
-0.12435652 -0.080504477 0.22082719
-0.12478037 -0.082401767 0.22081417
-0.059754234 0.080388665 0.2187836
-0.060621947 0.078999117 0.21925151
-0.06157279 0.076510549 0.22029079
-0.062375985 0.074121162 0.22086431
-0.062437348 0.071800962 0.22087672
-0.062651768 0.069922596 0.22088994
-0.11836665 -0.072084948 0.22264189
-0.11911516 -0.07395032 0.22266521
-0.12008482 -0.07648237 0.22269601
-0.12110002 -0.078842908 0.22191738
-0.12196657 -0.081289902 0.22097299
-0.12315264 -0.082761601 0.22078474
-0.057456791 0.079690292 0.218743
-0.058198169 0.07804966 0.21930479
-0.059031054 0.075600669 0.22017786
-0.059850369 0.073152333 0.22082065
-0.060795717 0.070706546 0.22073948
-0.06139325 0.069114298 0.22086971
-0.11316264 -0.068886548 0.22252691
-0.1138075 -0.070347473 0.22254628
-0.11644676 -0.072735168 0.2226083
-0.11725586 -0.074583814 0.22263269
-0.11786291 -0.077567816 0.22265871
-0.11860004 -0.079899818 0.22201367
-0.11963129 -0.082419395 0.22141366
-0.12016712 -0.084651381 0.22073671
-0.12033565 -0.086445689 0.22074859
-0.055301413 0.079049304 0.21877383
-0.05568964 0.077188239 0.21944152
-0.05654972 0.074684173 0.22044457
-0.057512816 0.072242558 0.22078031
-0.058685318 0.070311755 0.22081208
-0.059971094 0.068895459 0.2208436
-0.11169169 -0.069064781 0.22249955
-0.11250475 -0.070776775 0.22252336
-0.11584429 -0.079424798 0.22262913
-0.11616796 -0.080950737 0.22224003
-0.11706194 -0.083246648 0.22098009
-0.11861268 -0.085346848 0.22071032
-0.11961208 -0.086587623 0.22073542
-0.047485888 0.088062987 0.2185117
-0.052188553 0.078098491 0.21864985
-0.053215247 0.076224402 0.21937323
-0.05417832 0.073745698 0.2202787
-0.05492571 0.072045326 0.22073178
-0.11246523 -0.077693909 0.22255607
-0.11265932 -0.07930629 0.2225675
-0.11380188 -0.081938103 0.22236525
-0.11472011 -0.084206849 0.2212792
-0.11511729 -0.086520761 0.22082914
-0.1153219 -0.08856976 0.22066291
-0.046692032 0.087927938 0.21849719
-0.050424166 0.077416942 0.21861938
-0.050830245 0.075167343 0.21935698
-0.051799823 0.072839901 0.22059454
-0.052700713 0.071380168 0.22069243
-0.11120349 -0.080404624 0.22254497
-0.11146547 -0.082784906 0.22247575
-0.11218038 -0.084989041 0.22177155
-0.11330736 -0.087568641 0.22145846
-0.11402258 -0.089915156 0.22112417
-0.11442392 -0.091366306 0.22065918
