# .PCD v0.7 - Point Cloud Data file format
VERSION 0.7
FIELDS x y z
SIZE 4 4 4
TYPE F F F
COUNT 1 1 1
WIDTH 1379
HEIGHT 1
VIEWPOINT 0 0 0 1 0 0 0
POINTS 1379
DATA ascii
0.082540937 0.032642379 0.2215353
0.08253786 0.030090332 0.22164689
0.082542762 0.027538471 0.22168037
0.082547665 0.02498661 0.22171384
0.082552552 0.022434736 0.22174731
0.082557768 0.019723386 0.22178288
0.082562983 0.017012022 0.22181845
0.082567871 0.014460174 0.22185193
0.082478076 0.011948666 0.22188495
0.082251489 0.009480644 0.22191754
0.082468882 0.0066847391 0.22195403
0.082477391 0.0043075085 0.22198521
0.082560852 0.0015093945 0.22202185
0.082438231 -0.0010803994 0.22205593
0.082498446 -0.0037990441 0.22209154
0.082607709 -0.0062737139 0.22212391
0.082612619 -0.0088256039 0.22215739
0.082617506 -0.011377458 0.22219086
0.082622394 -0.01392928 0.22222434
0.082627609 -0.016640637 0.22225991
0.08263284 -0.019352049 0.22229546
0.082637735 -0.021903902 0.22232895
0.08264263 -0.024455726 0.22236241
0.082647525 -0.027007578 0.2223959
0.082652435 -0.029559476 0.22242936
0.082657643 -0.032270811 0.22246493
0.082662843 -0.034982182 0.2225005
0.082667746 -0.037534043 0.22253399
0.082672663 -0.040085942 0.22256745
0.082706288 -0.042697202 0.22233787
0.082789555 -0.04527951 0.22163568
0.082794741 -0.047977634 0.22167104
0.082799613 -0.050517049 0.22170435
0.082681619 -0.053183686 0.22161616
0.082701758 -0.055623762 0.22095551
0.08315751 -0.0578149 0.22079955
0.085972413 0.047317948 0.21941768
0.085079461 0.045617077 0.21956584
0.085159391 0.043128692 0.22047362
0.085164264 0.040589273 0.22050692
0.085097924 0.038025569 0.22119357
0.085090846 0.035358123 0.22146435
0.085102916 0.03264761 0.22142355
0.085089937 0.030095197 0.22164451
0.085094832 0.027543336 0.22167797
0.085115194 0.024981208 0.22171158
0.085104644 0.022439608 0.22174492
0.085109845 0.019728258 0.22178049
0.08511506 0.017016893 0.22181606
0.085119963 0.014465045 0.22184953
0.085527852 0.011897154 0.22188286
0.085577279 0.0092960373 0.22191696
0.085189648 0.0067703258 0.22195043
0.084959552 0.0051672813 0.22197171
0.084030077 0.00058715325 0.22203268
0.084146418 -0.0046226978 0.22210091
0.084707513 -0.0064636883 0.2221245
0.084810942 -0.0087936427 0.22215496
0.084714368 -0.011354003 0.22218865
0.084468111 -0.013925772 0.22222263
0.084686637 -0.016607733 0.2222576
0.084944271 -0.019513898 0.22229549
0.085187212 -0.022008155 0.22232799
0.085110962 -0.024486156 0.22236057
0.085199594 -0.0270027 0.22239351
0.085204504 -0.02955462 0.22242698
0.085209712 -0.032265939 0.22246255
0.08521492 -0.034977317 0.22249812
0.085219823 -0.037529171 0.22253159
0.085224725 -0.040081069 0.22256507
0.085202254 -0.042678308 0.22249623
0.085257396 -0.045206223 0.22208014
0.085379586 -0.047850542 0.2218588
0.085339248 -0.05051221 0.22170198
0.085344121 -0.053051613 0.2217353
0.085299015 -0.055646371 0.22109105
0.085290782 -0.058310941 0.22080413
0.08579573 -0.059991531 0.2208257
0.08791022 0.047516264 0.21941333
0.087759756 0.045626327 0.2196414
0.087699011 0.043133538 0.22047123
0.087703891 0.04059412 0.22050455
0.087659121 0.03806565 0.22113143
0.087636173 0.035362694 0.22151753
0.087643728 0.032621119 0.22159292
0.087587118 0.030092124 0.22164227
0.087646917 0.027548209 0.22167559
0.087651819 0.024996348 0.22170907
0.087557554 0.022526782 0.22174156
0.087440059 0.019573208 0.2217804
0.087667137 0.017021766 0.22181368
0.087240145 0.014504092 0.22184712
0.087443829 0.011911454 0.22188093
0.087297425 0.0094451997 0.22191341
0.087025538 0.0070181172 0.22194552
0.088714197 -0.0021684361 0.22206455
0.088345319 -0.0038916557 0.22208744
0.088204414 -0.0056630503 0.22211084
0.08678095 -0.019862447 0.22229847
0.087589845 -0.02217182 0.22232795
0.087878376 -0.024482107 0.222358
0.087751687 -0.026997836 0.22239111
0.087756589 -0.02954975 0.2224246
0.087761804 -0.032261066 0.22246017
0.087767005 -0.034972407 0.22249573
0.087771907 -0.037524298 0.2225292
0.087776817 -0.040076189 0.22256269
0.087781712 -0.042628065 0.22259615
0.087786607 -0.045179896 0.22262964
0.087745354 -0.047764879 0.22240651
0.087859504 -0.050509352 0.22236151
0.087915704 -0.05300153 0.22177707
0.087836683 -0.055651914 0.22165117
0.088016599 -0.058161464 0.22099973
0.088126466 -0.060662679 0.22083239
0.091147974 0.050012734 0.21937759
0.090372242 0.047960691 0.21944524
0.090252079 0.045662723 0.2201857
0.090228349 0.043174207 0.22046839
0.089865372 0.04086642 0.22049883
0.090316296 0.037977751 0.22073647
0.090303898 0.035345543 0.22096288
0.090324111 0.032924883 0.22160262
0.090114422 0.030064914 0.22164042
0.090291023 0.027456585 0.22167438
0.090363406 0.025001515 0.22170652
0.090367086 0.023087617 0.22173165
0.089471593 0.018726464 0.22178976
0.08910054 0.018140951 0.22179776
0.090335071 -0.001766603 0.22205776
0.090427466 -0.0036837133 0.22195783
0.090307847 -0.0056905905 0.22210926
0.090454079 -0.02220796 0.22232582
0.090458378 -0.024440808 0.22235511
0.090463273 -0.026992654 0.22238858
0.090468176 -0.029544538 0.22242206
0.090473384 -0.032255869 0.22245765
0.090478592 -0.034967281 0.22249319
0.090483502 -0.037519149 0.22252667
0.090488389 -0.040071025 0.22256014
0.090493292 -0.042622887 0.22259362
0.090498202 -0.045174722 0.22262709
0.090503097 -0.047726549 0.22266057
0.090508305 -0.050437868 0.22269616
0.090450801 -0.052921206 0.22189111
0.09042827 -0.055581342 0.22176385
0.090412617 -0.058284767 0.22162828
0.090531632 -0.060839567 0.22103843
0.090838909 -0.063189335 0.22086307
0.091369241 -0.065185353 0.22088876
0.092857182 0.050388925 0.21937113
0.092746809 0.048234668 0.21975778
0.092932135 0.045682952 0.22043306
0.092934899 0.043145202 0.22050801
0.092963897 0.040622339 0.22061701
0.092981532 0.038044937 0.22053319
0.093004882 0.035387684 0.2208018
0.092965595 0.032702655 0.22160313
0.093290851 0.030270338 0.22163475
0.093091428 0.027417157 0.22167236
0.093074992 0.025006693 0.22170399
0.093128078 0.023142386 0.22172841
0.093865611 0.00092490762 0.22201926
0.093557872 -0.00098958332 0.22204468
0.092782766 -0.0035898378 0.22207946
0.092122898 -0.0052454406 0.22210182
0.093959823 -0.020446844 0.22229958
0.093224064 -0.022009609 0.22232069
0.093169965 -0.024435639 0.22235256
0.09317486 -0.026987489 0.22238605
0.093179762 -0.029539391 0.22241952
0.09318497 -0.032250717 0.22245508
0.093190178 -0.034962088 0.22249065
0.093195081 -0.037513956 0.22252414
0.093199976 -0.040065832 0.2225576
0.093204886 -0.042617716 0.22259109
0.093209781 -0.045169543 0.22262456
0.093214683 -0.047721367 0.22265804
0.093219899 -0.050432704 0.22269359
0.093133688 -0.053060919 0.2220954
0.093126625 -0.055576194 0.22176136
0.09313181 -0.058274347 0.22179677
0.093117483 -0.060992014 0.22172572
0.093016021 -0.063307665 0.22090742
0.093043931 -0.065403238 0.22089009
0.096766353 0.052424084 0.21934083
0.095710218 0.050827432 0.21938033
0.09586636 0.048224196 0.22023328
0.09562809 0.045691393 0.22049294
0.095605873 0.04317937 0.22116643
0.095572002 0.04060214 0.22136812
0.095644549 0.03807009 0.22054605
0.095636398 0.035379887 0.22126983
0.095664144 0.03339383 0.22159162
0.094498903 0.031070106 0.22162323
0.094634898 0.026700288 0.22168043
0.09463302 0.025120087 0.22170115
0.095118701 0.023071501 0.22172755
0.095909245 0.018916732 0.22178134
0.096189931 0.01801271 0.22179301
0.096307062 0.0031624567 0.22198771
0.095723845 0.0014960459 0.22201003
0.095465325 -0.00075317733 0.22203979
0.094684392 -0.0032203258 0.22207294
0.094647005 -0.022313867 0.22232348
0.09553536 -0.024722364 0.22235417
0.095726945 -0.026982617 0.22238366
0.095714115 -0.029532015 0.22241712
0.095737055 -0.032245841 0.2224527
0.095742255 -0.034957204 0.22248827
0.095747158 -0.037509087 0.22252174
0.095752068 -0.040060963 0.22255522
0.095756963 -0.042612843 0.22258869
0.095761865 -0.045164675 0.22262217
0.095766768 -0.047716498 0.22265564
0.095771976 -0.050427832 0.22269121
0.095803216 -0.053036846 0.22211441
0.095824994 -0.055571042 0.2217588
0.095830172 -0.058269199 0.22179423
0.095746055 -0.061028522 0.22168963
0.095763005 -0.063313708 0.22095235
0.095744349 -0.065336458 0.22088677
0.09928868 0.05495587 0.21930531
0.098502271 0.053217083 0.21932887
0.098175704 0.050888605 0.21987377
0.098164864 0.048233371 0.22041042
0.098153189 0.045724977 0.22100575
0.09806028 0.043271285 0.22145984
0.098103732 0.040555369 0.22149542
0.098156303 0.038093384 0.22146519
0.097813539 0.035761043 0.22155859
0.097046077 0.03362684 0.22158736
0.097806409 0.0031653186 0.22198631
0.098158531 0.0015616752 0.22200696
0.098058432 -0.00052825082 0.22203448
0.098249614 -0.025058769 0.22235614
0.098042674 -0.026831478 0.22237957
0.097271785 -0.028521458 0.2224025
0.09763886 -0.032787178 0.22245811
0.097958326 -0.034936011 0.22248597
0.098116264 -0.037587225 0.22252062
0.098304145 -0.040056106 0.22255284
0.09830904 -0.042607974 0.2225863
0.098313943 -0.045159806 0.22261979
0.098318852 -0.047711629 0.22265325
0.098324053 -0.050422978 0.22268882
0.098305017 -0.053119313 0.22258788
0.098379984 -0.055630516 0.22218576
0.098369814 -0.058264337 0.22179185
0.098374993 -0.060962487 0.22182722
0.098363988 -0.063459113 0.22151707
0.098482795 -0.065958634 0.22094879
0.099016011 -0.068059236 0.22091952
0.10099415 0.055148646 0.21930127
0.10071068 0.053551611 0.21947879
0.10070097 0.050930388 0.22030155
0.10069953 0.048254699 0.22065778
0.10069162 0.045754209 0.22140925
0.10076 0.04326725 0.22145742
0.10077974 0.040584035 0.2214926
0.10070612 0.038099602 0.22152527
0.1009125 0.036345586 0.22154813
0.10049435 -0.038496844 0.22253047
0.10057533 -0.04035195 0.22255465
0.10086112 -0.042603098 0.22258392
0.10086603 -0.045154937 0.22261739
0.10087093 -0.047706768 0.22265087
0.10087614 -0.050418101 0.22268644
0.10088134 -0.053129472 0.22272201
0.10092342 -0.055699255 0.22265121
0.10087704 -0.058185361 0.22185346
0.10091462 -0.060957655 0.22182484
0.1009195 -0.063497081 0.22185816
0.10093614 -0.066032439 0.22124125
0.10098828 -0.068354569 0.22092159
0.10327218 0.055422008 0.21929562
0.10323584 0.053609982 0.22003831
0.10323934 0.050940178 0.22035469
0.1031028 0.048237264 0.22040807
0.10324476 0.045750331 0.22126636
0.10324321 0.043228768 0.22145566
0.1032533 0.040656336 0.22148941
0.10325819 0.038104471 0.22152288
0.10336383 0.035491463 0.22155707
0.10387295 0.033607971 0.2215814
0.10384589 -0.038272329 0.22252443
0.10357969 -0.040075555 0.22254829
0.10349515 -0.042306568 0.22257765
0.10340972 -0.045315366 0.22261718
0.1034255 -0.047684167 0.22264825
0.10342821 -0.050413229 0.22268406
0.10343343 -0.053124599 0.22271961
0.10344115 -0.05565796 0.22235015
0.10341735 -0.058268316 0.2217873
0.10345425 -0.06095279 0.22182247
0.10343567 -0.063468859 0.22185548
0.10346758 -0.066076696 0.22133957
0.10355927 -0.068558827 0.22092193
0.10442565 -0.070277572 0.22094366
0.10610428 0.055739611 0.21928887
0.10592793 0.05358715 0.21974796
0.1059377 0.05094533 0.22035219
0.10603622 0.048239045 0.22113252
0.10579558 0.045764931 0.22142008
0.10580048 0.043213073 0.22145355
0.10576931 0.040686857 0.22148672
0.10577741 0.038043279 0.22152139
0.10563495 0.035455167 0.22155547
0.10502164 0.033482574 0.221582
0.1055239 -0.038196757 0.2225219
0.10596039 -0.040041491 0.22254567
0.10596529 -0.04259336 0.22257915
0.10597019 -0.045145195 0.22261262
0.10597509 -0.047697015 0.2226461
0.1059803 -0.050408348 0.22268166
0.10598551 -0.053119726 0.22271723
0.10599041 -0.05567158 0.22275071
0.10610522 -0.058221377 0.22199111
0.10611825 -0.060852479 0.22181873
0.10614847 -0.063514292 0.22185364
0.10615885 -0.066107035 0.22140978
0.10616006 -0.068694867 0.22092135
0.10563639 -0.07016997 0.22094116
0.10819872 0.055446677 0.21929081
0.10861922 0.0535914 0.21973671
0.1086365 0.050952617 0.2203774
0.10849785 0.048308879 0.2212037
0.10850718 0.045760445 0.22141767
0.10843582 0.043362401 0.2214492
0.10816166 0.041108739 0.22147909
0.10824801 0.037514526 0.2215261
0.10785507 0.036486428 0.22154
0.10870209 -0.040337529 0.22254705
0.10871841 -0.04254882 0.22257605
0.10841593 -0.04514052 0.22261034
0.10868668 -0.047691841 0.22264355
0.10869189 -0.05040317 0.22267914
0.10869709 -0.053114548 0.22271469
0.10870199 -0.055666402 0.22274816
0.10879933 -0.0581691 0.22205818
0.10885097 -0.060942501 0.22181742
0.10885585 -0.063481919 0.22185072
0.1088535 -0.066152588 0.22151071
0.10884519 -0.068689749 0.22091885
0.10906801 -0.070630468 0.22094411
0.11148766 0.055340149 0.2192892
0.11116166 0.053625174 0.22003093
0.11117569 0.050955325 0.22034727
0.11120278 0.048301745 0.22103818
0.11121874 0.045775279 0.221415
0.11122365 0.043223418 0.22144848
0.11122855 0.040671553 0.22148195
0.11120848 0.038540121 0.22150995
0.11043868 0.036682747 0.22153507
0.11138386 -0.040190611 0.22254269
0.11138846 -0.042583019 0.22257407
0.11142834 -0.045050982 0.22260642
0.11144094 -0.047761016 0.22264196
0.11140347 -0.050398003 0.22267659
0.11140868 -0.053109381 0.22271216
0.11141796 -0.055653416 0.22240759
0.11131646 -0.058151931 0.22182269
0.11133251 -0.060995951 0.22181584
0.11136156 -0.063432917 0.22184779
0.11136472 -0.066137642 0.22142166
0.11137237 -0.068684921 0.22091648
0.11146094 -0.070811436 0.2209443
0.11379533 0.055784799 0.21928126
0.11378575 0.053505123 0.21985511
0.11361589 0.051079016 0.2203434
0.11363889 0.048153166 0.22128727
0.11377083 0.045780152 0.22141261
0.11377573 0.043228291 0.22144608
0.11378063 0.040676426 0.22147956
0.11402011 0.038121883 0.22151285
0.11416572 0.036166724 0.22153841
0.11382318 -0.040298942 0.22254188
0.11394054 -0.042578146 0.22257169
0.11394544 -0.045129973 0.22260515
0.11399017 -0.047658939 0.22263829
0.11395555 -0.050393138 0.22267421
0.11396076 -0.053104512 0.22270977
0.11396566 -0.055656374 0.22274324
0.11391913 -0.058256093 0.22225188
0.11396539 -0.06089852 0.2218425
0.11393512 -0.063472234 0.22184598
0.11382941 -0.06611599 0.22147791
0.11389955 -0.0686801 0.22091411
0.11377878 -0.070725232 0.22094105
0.11688358 0.05765181 0.21925396
0.11621985 0.056032285 0.21929249
0.11618683 0.053659417 0.21984044
0.1162907 0.051005229 0.22067994
0.11633576 0.048319198 0.22137697
0.1163229 0.045785021 0.22141023
0.11632781 0.04323316 0.2214437
0.11633271 0.040681295 0.22147718
0.11632492 0.038147129 0.22151043
0.11615764 0.036006618 0.22153868
0.11583378 -0.04096185 0.22254884
0.11649261 -0.042573269 0.2225693
0.11644783 -0.045122582 0.22260278
0.11650243 -0.047676932 0.22263625
0.11650763 -0.050388262 0.22267182
0.11651284 -0.05309964 0.22270738
0.11653223 -0.055679567 0.22252697
0.1164633 -0.058125392 0.22234237
0.11649236 -0.06078846 0.22219591
0.11647475 -0.063467391 0.2218436
0.11640687 -0.06612546 0.22175352
0.11649998 -0.06855756 0.22103515
0.11646988 -0.070580363 0.2209367
0.11836387 0.057614014 0.21925311
0.11886811 0.056134865 0.21946929
0.1187894 0.053667992 0.22030473
0.1188339 0.051014423 0.22089501
0.11887009 0.048341759 0.22137436
0.11887499 0.04578989 0.22140783
0.11887989 0.043238029 0.22144131
0.11888479 0.040686168 0.22147478
0.11888969 0.038134303 0.22150826
0.1186552 0.035655595 0.221541
0.11841945 0.033827122 0.22156528
0.11880208 -0.040814415 0.22254419
0.11903714 -0.04258614 0.22256716
0.11908562 -0.045120165 0.22260036
0.1190545 -0.047672063 0.22263385
0.11905971 -0.0503834 0.22266942
0.11906492 -0.053094778 0.22270499
0.11904547 -0.055652495 0.22239141
0.11907009 -0.058153126 0.22180137
0.1189891 -0.060983591 0.22224148
0.11900917 -0.063474186 0.22197771
0.11911685 -0.066138208 0.22175296
0.11904198 -0.068554357 0.22103128
0.11915261 -0.071008094 0.22093987
0.12076487 0.057523832 0.21925206
0.12150443 0.056042477 0.21936767
0.12148775 0.053673137 0.22030222
0.12145928 0.051065505 0.22094163
0.12142216 0.048346628 0.22137198
0.12142707 0.045794763 0.22140545
0.12143197 0.043242905 0.22143893
0.12143687 0.04069104 0.2214724
0.12142038 0.038202934 0.22150506
0.12203744 0.035766695 0.2215365
0.12256658 0.033835039 0.2215614
0.12270045 -0.035862718 0.22247568
0.12166806 -0.038150758 0.2225066
0.12169623 -0.039934449 0.22252995
0.12159678 -0.042563524 0.22256452
0.12160169 -0.045115363 0.222598
0.12160658 -0.047667187 0.22263147
0.1216118 -0.050378516 0.22266704
0.12163469 -0.053134795 0.22265843
0.12159723 -0.055467933 0.22191451
0.12163296 -0.058431163 0.22227962
0.12171435 -0.060883116 0.22183198
0.12171273 -0.063457392 0.22183873
0.12170041 -0.066103518 0.22176096
0.12183259 -0.068540394 0.2210162
0.12160363 -0.070781805 0.22093466
0.1248187 0.057636857 0.21924691
0.12412377 0.05611439 0.2194898
0.12418611 0.053678293 0.22029968
0.12415577 0.050986763 0.22093233
0.12413376 0.048351802 0.22136945
0.12413865 0.045799933 0.22140291
0.12414356 0.043248076 0.2214364
0.12414846 0.040696211 0.22146986
0.12373702 0.038486704 0.22149923
0.12340301 0.035439946 0.22153951
0.123347 0.033517543 0.22156486
0.12349767 -0.035701714 0.22247285
0.12352422 -0.037661128 0.22249854
0.12430346 -0.0400065 0.22252852
0.12430836 -0.042558361 0.22256199
0.12429978 -0.045103472 0.22259539
0.12431818 -0.04766202 0.22262894
0.12432338 -0.050373349 0.22266452
0.12432859 -0.053084716 0.22270007
0.12440855 -0.05563641 0.22273348
0.12433565 -0.058381245 0.22258568
0.12442485 -0.060892958 0.22181797
0.1244111 -0.063452251 0.22183618
0.12434801 -0.06596332 0.22116902
0.12432419 -0.068660215 0.22090437
0.12454218 -0.070555091 0.22092903
0.12660868 0.05769293 0.21924458
0.12662843 0.056129836 0.21942136
0.12672397 0.053681545 0.22028169
0.12677018 0.051013514 0.22069335
0.12684534 0.04835698 0.2213669
0.12685025 0.045805112 0.22140038
0.12680195 0.04325847 0.22143383
0.12686004 0.040701389 0.22146733
0.12686494 0.038149528 0.2215008
0.12714155 0.036117818 0.22152722
0.1269722 -0.038446315 0.2225057
0.12697908 -0.04003223 0.22252642
0.12701996 -0.042553183 0.22255945
0.12702486 -0.045105014 0.22259292
0.12702976 -0.047656838 0.2226264
0.12703496 -0.050368175 0.22266197
0.12704016 -0.053079545 0.22269754
0.12704328 -0.055624578 0.2227153
0.12707561 -0.058222592 0.22273467
0.12694876 -0.060736675 0.22205465
0.12695074 -0.063447401 0.22183381
0.12691388 -0.066112004 0.22148123
0.12685136 -0.068655387 0.220902
0.12685616 -0.071146719 0.22093467
0.12638511 -0.072604701 0.22095419
0.12895368 0.057660952 0.21924286
0.12929685 0.056118682 0.21926278
0.12928969 0.053677037 0.21980962
0.1292887 0.051001817 0.22048295
0.12939742 0.048361845 0.22136451
0.12940232 0.045809984 0.221398
0.12940723 0.043258123 0.22143146
0.12941213 0.040706258 0.22146495
0.12941432 0.038204066 0.22149777
0.12842387 0.036198724 0.22152507
0.12962703 -0.040243369 0.22252677
0.12958466 -0.042530566 0.22255681
0.12963928 -0.045183819 0.22259158
0.12958184 -0.047651965 0.22262402
0.12958704 -0.050363306 0.22265957
0.12959225 -0.053074677 0.22269514
0.12953703 -0.055362899 0.22193125
0.12955286 -0.058390096 0.22260554
0.12949054 -0.060780518 0.2218951
0.12949038 -0.063442543 0.22183143
0.12945224 -0.066063263 0.22179337
0.12957639 -0.068495721 0.22104028
0.12913679 -0.070704259 0.22092679
0.13159321 0.055691384 0.2192663
0.13183992 0.053470064 0.21986428
0.13184495 0.051022407 0.22030054
0.13194303 0.048363172 0.22131531
0.13195442 0.045814853 0.2213956
0.1319593 0.043262996 0.22142908
0.13196422 0.040711131 0.22146255
0.13193376 0.038253807 0.22149482
0.13237263 0.02737838 0.22163717
0.13322809 -0.036002122 0.22246793
0.13223128 -0.037641853 0.22249027
0.13211921 -0.039991569 0.2225212
0.13212411 -0.042543445 0.22255468
0.13212903 -0.045095276 0.22258815
0.13213393 -0.047647092 0.22262162
0.13210717 -0.050326597 0.2226568
0.13210839 -0.053100757 0.2226932
0.13205847 -0.0555024 0.22230697
0.13220985 -0.05838348 0.22258189
0.13205187 -0.060872849 0.22187869
0.13209189 -0.063488454 0.22177084
0.13210599 -0.066012979 0.22125092
0.13220878 -0.068608508 0.22091214
0.13462646 0.05564674 0.21926412
0.13457097 0.053564437 0.2193079
0.13452041 0.050959412 0.22018671
0.13453449 0.048335142 0.22062792
0.13450649 0.045819722 0.22139321
0.13451138 0.043267861 0.2214267
0.13449854 0.040728617 0.22146001
0.1345212 0.038164139 0.22149365
0.13517486 0.036410972 0.2215161
0.13541733 0.03211965 0.22157221
0.13554476 0.031201601 0.22158411
0.13482209 -0.035448097 0.22245915
0.1346664 -0.037434805 0.22248533
0.1346713 -0.0399867 0.22251882
0.1346762 -0.042538576 0.22255228
0.13468111 -0.045090407 0.22258577
0.13468601 -0.047642235 0.22261924
0.13477319 -0.050256748 0.22265346
0.13476957 -0.053148616 0.2226914
0.13486235 -0.055667944 0.22252148
0.13475698 -0.058250461 0.22215389
0.1347049 -0.060851224 0.22180906
0.13471358 -0.063466564 0.22169712
0.13477334 -0.065925837 0.22088601
0.1347488 -0.068640321 0.2208946
0.1342777 -0.070062667 0.22091368
0.13686907 0.055501394 0.21926399
0.13707104 0.05362371 0.21947597
0.13720691 0.051004998 0.22032292
0.13709505 0.048279423 0.22041135
0.13704087 0.04580684 0.22139108
0.13706346 0.04327273 0.22142431
0.13706836 0.040720865 0.22145778
0.13706531 0.0382239 0.22149055
0.13729662 0.03568254 0.22152369
0.13636652 0.032425944 0.22156729
0.13622561 0.031054046 0.22158545
0.13712065 -0.037738901 0.22248709
0.13722338 -0.039981827 0.22251643
0.13722828 -0.042533703 0.2225499
0.13723318 -0.045085531 0.22258338
0.13723807 -0.047637362 0.22261685
0.13724327 -0.05034868 0.22265242
0.13724849 -0.053060073 0.22268799
0.13735685 -0.055419233 0.22193816
0.13741666 -0.058189828 0.22175533
0.13742185 -0.060887966 0.22179069
0.13745001 -0.063455187 0.22174972
0.13725224 -0.065885931 0.22093415
0.13719815 -0.068471968 0.22089018
0.1398015 0.055585958 0.2192602
0.13972633 0.053611621 0.21928617
0.13976619 0.051029108 0.22010688
0.1397572 0.048313752 0.22038712
0.13961066 0.04582946 0.22138844
0.13961555 0.043277603 0.22142191
0.13962045 0.040725738 0.2214554
0.13962536 0.038173877 0.22148886
0.13963057 0.035462521 0.22152443
0.14038292 0.033427361 0.22155051
0.14066716 0.029631652 0.22160009
0.14068067 0.028526623 0.22161455
0.14050911 -0.025178207 0.2223193
0.14056164 -0.026848553 0.22234112
0.14071043 -0.028491719 0.22236258
0.14079922 -0.033196572 0.22242422
0.14021933 -0.035048604 0.22244899
0.13970813 -0.03742516 0.22248062
0.13977547 -0.039976954 0.22251403
0.13978036 -0.042528827 0.22254752
0.13978526 -0.045080658 0.22258098
0.13979018 -0.047632486 0.22261447
0.13989204 -0.050324168 0.22257279
0.13980058 -0.053055204 0.22268561
0.13995783 -0.055469561 0.22207344
0.13995628 -0.058184993 0.22175296
0.13999934 -0.060902454 0.22175825
0.13998878 -0.06326665 0.22113192
0.13995595 -0.065945536 0.22085451
0.13925779 -0.067929804 0.22088118
0.14179587 0.055451579 0.21926016
0.14228691 0.053541694 0.21928477
0.14235114 0.050936937 0.21964364
0.14229137 0.048316576 0.22035354
0.1422465 0.045810591 0.22098361
0.14232716 0.043282781 0.22141938
0.14233206 0.040730916 0.22145286
0.14233696 0.038179055 0.22148633
0.14234218 0.035467695 0.22152191
0.14241764 0.032808077 0.22155672
0.14238878 0.030177202 0.22159126
0.14245215 0.028022818 0.22161947
0.14128926 -0.025353933 0.22232087
0.14118558 -0.026736394 0.22233914
0.14244625 -0.033169165 0.22242232
0.14247726 -0.034868039 0.22244455
0.14248216 -0.037419911 0.22247803
0.14248708 -0.039971784 0.2225115
0.14249195 -0.042523656 0.22254498
0.14249687 -0.045075484 0.22257845
0.14245109 -0.047722917 0.22253633
0.14252064 -0.050262537 0.2218934
0.14236209 -0.052990142 0.22187701
0.14247146 -0.055466708 0.22173035
0.14249592 -0.058180153 0.22175057
0.14252691 -0.060759734 0.22116584
0.14263594 -0.063255459 0.22081679
0.1426204 -0.065885499 0.2208513
0.14394023 0.052619405 0.21929532
0.14487393 0.050923012 0.2193937
0.14484324 0.048381962 0.22030559
0.14488235 0.045794446 0.22061859
0.14503872 0.043287951 0.22141685
0.14504364 0.040736087 0.22145031
0.14504853 0.038184226 0.2214838
0.14505374 0.03547287 0.22151937
0.14505894 0.032761514 0.22155493
0.14496653 0.030327354 0.22158694
0.14528304 0.028011858 0.22161707
0.14513192 -0.032915238 0.22241654
0.14518884 -0.034862831 0.22244202
0.14519374 -0.037414722 0.2224755
0.14519863 -0.039966594 0.22250897
0.14520355 -0.042518482 0.22254243
0.14520843 -0.045070313 0.22257592
0.14521335 -0.04762214 0.22260939
0.14516346 -0.050347306 0.22252522
0.14510666 -0.052935854 0.22209463
0.14514965 -0.055577889 0.22230773
0.1450928 -0.058144435 0.22186615
0.14515625 -0.060929477 0.22156675
0.14516315 -0.063250639 0.22081442
0.145024 -0.06539955 0.22084273
0.14735901 0.050813381 0.2193705
0.14753272 0.048424821 0.22019352
0.14754279 0.045789354 0.22042361
0.14766961 0.043275576 0.22103968
0.1475957 0.040740963 0.22144793
0.14760059 0.038189098 0.22148141
0.14760579 0.035477743 0.22151697
0.14761099 0.032766387 0.22155254
0.14761589 0.030214522 0.22158602
0.14746062 0.028022353 0.22161493
0.14860976 -0.030470284 0.22238135
0.14802797 -0.032410622 0.22240728
0.14774092 -0.034857988 0.22243963
0.14774579 -0.037409842 0.2224731
0.14775071 -0.039961725 0.22250658
0.14775559 -0.042513601 0.22254005
0.14776051 -0.04506544 0.22257353
0.14778417 -0.047637954 0.22259188
0.14786761 -0.050325524 0.22240794
0.14781527 -0.052960262 0.22211722
0.14776593 -0.055522952 0.22199468
0.14774726 -0.058196317 0.22172253
0.14760955 -0.060727946 0.22111252
0.14769033 -0.063245811 0.22081205
0.14770937 -0.065344043 0.22083955
0.14920935 0.050458848 0.21931891
0.14993154 0.048236258 0.21970956
0.1502326 0.045792304 0.22037943
0.15023744 0.043252885 0.22041273
0.15021126 0.040738463 0.22110277
0.15015267 0.038193967 0.22147901
0.15015787 0.035482615 0.22151458
0.15016308 0.032771256 0.22155015
0.15016799 0.030219395 0.22158363
0.15041386 0.027596068 0.22161782
0.15043922 0.025205482 0.22164917
0.15108484 0.023469318 0.22167145
0.15120035 0.018684775 0.22173408
0.15076573 0.01701084 0.22175638
0.15099376 0.015524924 0.22177576
0.15139544 -0.027514374 0.22234003
0.15051344 -0.029667445 0.222369
0.15028775 -0.032141741 0.22240168
0.15029298 -0.034853116 0.22243725
0.15029787 -0.037404981 0.22247072
0.15030277 -0.039956871 0.2225042
0.15030769 -0.042508729 0.22253767
0.15031257 -0.045060568 0.22257115
0.150359 -0.047720544 0.22208284
0.15038055 -0.050357126 0.22167103
0.1504222 -0.052927416 0.22167441
0.15042707 -0.055466827 0.22170773
0.15039323 -0.058243401 0.2215692
0.15021262 -0.060714036 0.22077654
0.14996079 -0.062985264 0.22080657
0.14936808 -0.065074667 0.22083451
0.15255481 0.047852959 0.21935005
0.15281507 0.045788247 0.21996859
0.15277708 0.043257736 0.22041036
0.15276355 0.040701605 0.22045928
0.15270489 0.038223315 0.22129452
0.15271001 0.035487488 0.2215122
0.15271519 0.032776129 0.22154777
0.15272011 0.030224267 0.22158124
0.15272501 0.027672406 0.22161472
0.15272991 0.025120541 0.22164819
0.15290003 0.022722466 0.22167949
0.15288433 0.019723831 0.22171885
0.15274522 0.017145962 0.22175281
0.15263928 0.015191991 0.22177854
0.153681 -0.013315223 0.22215165
0.15365274 -0.025030689 0.22230539
0.15296501 -0.027020613 0.22233205
0.15283467 -0.029425561 0.22236373
0.15283988 -0.032136865 0.22239929
0.1528451 -0.034848236 0.22243485
0.15285 -0.037400104 0.22246833
0.15285489 -0.039951984 0.2225018
0.15285979 -0.04250386 0.22253528
0.15283841 -0.045096956 0.22253902
0.15294203 -0.047642231 0.22179757
0.15295695 -0.050383158 0.22163872
0.15296184 -0.052922558 0.22167204
0.15304545 -0.055601671 0.22137375
0.15281726 -0.058151986 0.2209298
0.15272939 -0.060602244 0.22077279
0.15209353 -0.06230735 0.22079572
0.15501764 0.047481302 0.21935269
0.15536414 0.045729265 0.21940613
0.15539134 0.043227807 0.22002019
0.15531594 0.040816195 0.22044004
0.15529621 0.038058374 0.22093649
0.15532413 0.035533879 0.22145657
0.1552673 0.032780994 0.22154538
0.15527219 0.03022914 0.22157885
0.15527709 0.027677275 0.22161233
0.15528199 0.025125414 0.2216458
0.15528689 0.022573546 0.22167929
0.15529211 0.019862197 0.22171485
0.15521115 0.017703578 0.22174326
0.15641902 0.014441615 0.22178499
0.15629742 0.011315338 0.22182614
0.15521938 0.0014638798 0.22195631
0.15548956 8.5558742e-05 0.22197421
0.15637542 -0.0043785279 0.22203197
0.15601738 -0.0064035291 0.2220588
0.15561929 -0.0086264424 0.22208831
0.15577759 -0.011450488 0.22212523
0.15519634 -0.013329102 0.2221504
0.15641613 -0.017265402 0.222201
0.15626486 -0.019470681 0.22223003
0.15602098 -0.021912701 0.22226226
0.15544088 -0.024380598 0.22229517
0.15538186 -0.026868772 0.22232786
0.15538675 -0.029420661 0.22236133
0.15539196 -0.032132 0.2223969
0.15539718 -0.034843378 0.22243246
0.15540208 -0.037395231 0.22246595
0.15549883 -0.039973311 0.22226685
0.15544948 -0.042448163 0.22206749
0.1555234 -0.045162119 0.22224316
0.15540338 -0.047687467 0.22174981
0.15549658 -0.050378304 0.22163635
0.15560973 -0.053009491 0.2215064
0.15550587 -0.055499937 0.22097261
0.15557623 -0.057229213 0.22072594
0.15765363 0.045377884 0.21937788
0.1578926 0.043206111 0.21942155
0.15779835 0.040733218 0.22011574
0.15787363 0.038206257 0.22047199
0.15782905 0.035325177 0.22064026
0.15787584 0.032787893 0.22115409
0.15787646 0.03027048 0.22153118
0.15782914 0.027682148 0.22160994
0.15783404 0.025130283 0.22164342
0.15783894 0.022578415 0.22167689
0.15784414 0.019867068 0.22171246
0.15784936 0.017155699 0.22174802
0.15785426 0.014603851 0.22178151
0.15793368 0.01200958 0.22181547
0.15819058 0.0095463153 0.22184756
0.1582434 0.0070565371 0.22188017
0.15889816 0.0049679624 0.22190706
0.15799084 -0.0040648649 0.22202632
0.15789407 -0.0061300392 0.22205348
0.15789898 -0.0086819222 0.22208697
0.15789492 -0.011097499 0.22211866
0.15846539 -0.012907363 0.22214195
0.15794104 -0.01706814 0.22219695
0.1579192 -0.019208372 0.22222504
0.1579241 -0.02176022 0.22225852
0.157929 -0.024312047 0.22229199
0.15793391 -0.026863893 0.22232547
0.15793881 -0.02941582 0.22235894
0.15794402 -0.032127135 0.22239451
0.15794921 -0.034838505 0.22243008
0.15804851 -0.037441991 0.22233738
0.15794051 -0.039793074 0.22169521
0.15801017 -0.042557634 0.22178563
0.15803345 -0.045137785 0.22165991
0.15803131 -0.047834057 0.22160067
0.15807405 -0.0504185 0.22158976
0.15802203 -0.052890494 0.22088906
0.15802796 -0.05556218 0.22070184
0.15740387 -0.057203148 0.22072393
0.15932898 0.044804618 0.21938384
0.16025835 0.042878103 0.2194083
0.160394 0.040695146 0.21977493
0.16050228 0.038188629 0.2202476
0.16056961 0.035495624 0.22050515
0.16057484 0.0327975 0.22054052
0.16055106 0.030248422 0.22112182
0.16054069 0.027687322 0.2216074
0.1605456 0.025135458 0.22164088
0.1605505 0.022583589 0.22167435
0.16055574 0.019872243 0.22170994
0.16056092 0.017160874 0.22174549
0.16056582 0.01460903 0.22177896
0.16057071 0.012057142 0.22181244
0.16057561 0.0095053054 0.22184591
0.16054811 0.0069926605 0.2218789
0.16061777 0.0044039423 0.2219128
0.16065699 0.0016613258 0.22194876
0.16073322 -0.0010037017 0.22198364
0.16060075 -0.0035729888 0.22201748
0.16062362 -0.0061225872 0.22205091
0.16061056 -0.0086767506 0.22208443
0.16062893 -0.011235313 0.22211798
0.16065675 -0.013753016 0.22215098
0.16070125 -0.016558789 0.22218776
0.16063076 -0.019203203 0.22222251
0.16063568 -0.021755047 0.22225599
0.16064057 -0.024306875 0.22228946
0.16064547 -0.026858708 0.22232294
0.16065037 -0.029410614 0.22235641
0.16065559 -0.032121934 0.22239199
0.16070193 -0.034876235 0.22207521
0.16084242 -0.037220962 0.22156788
0.16069639 -0.039909162 0.221508
0.16063353 -0.042405367 0.22159205
0.16072449 -0.045130771 0.22156279
0.16072966 -0.047828902 0.22159818
0.16067764 -0.050401188 0.22136942
0.1606068 -0.052937549 0.22066505
0.1600859 -0.054967925 0.22069217
0.16186041 0.042598344 0.21941048
0.16197945 0.040430538 0.21943885
0.16302188 0.038045719 0.21948507
0.16323963 0.03549587 0.21986061
0.16332132 0.032787975 0.22040595
0.16327375 0.030219536 0.22085127
0.16326985 0.027710099 0.22158924
0.16325723 0.025140636 0.22163835
0.16334309 0.022519218 0.22154413
0.16329062 0.019890537 0.22163963
0.16327256 0.017166054 0.22174296
0.16327745 0.014614208 0.22177643
0.16328235 0.012062319 0.22180991
0.16328728 0.009510478 0.22184338
0.16329215 0.0069585964 0.22187686
0.16329704 0.0044067511 0.22191033
0.16330227 0.0016953759 0.2219459
0.16330746 -0.0010159612 0.22198147
0.16331241 -0.0035678181 0.22201493
0.16331729 -0.0061197011 0.22204842
0.16332215 -0.0086715687 0.22208188
0.16332707 -0.011223429 0.22211537
0.16333197 -0.013775256 0.22214884
0.16333717 -0.016486609 0.2221844
0.16334242 -0.019198021 0.22221997
0.16337715 -0.021784848 0.22222358
0.16334349 -0.02429352 0.22223996
0.16335709 -0.02685355 0.22232039
0.163362 -0.029405454 0.22235388
0.16336723 -0.032116778 0.22238944
0.1633147 -0.034685448 0.22202325
0.16340792 -0.03734868 0.22145821
0.16341279 -0.039888095 0.22149152
0.16341767 -0.042427503 0.22152483
0.16343573 -0.045027807 0.22128619
0.16349222 -0.047767516 0.22118683
0.16330568 -0.050255254 0.22078536
0.16302362 -0.05247689 0.22065681
0.16513449 0.037497997 0.21947445
0.165732 0.035417251 0.21950121
0.1658332 0.03280912 0.22007959
0.16581768 0.030268081 0.22056891
0.16578603 0.027701315 0.22095467
0.16585889 0.025161359 0.22127466
0.1658476 0.022516955 0.22097316
0.16577712 0.019747738 0.22085188
0.16585143 0.017207177 0.22151956
0.16582954 0.014619078 0.22177404
0.16583444 0.012067193 0.22180751
0.16583936 0.0095153488 0.22184099
0.16584425 0.0069634672 0.22187446
0.16584915 0.0044116164 0.22190794
0.16585436 0.0017002514 0.22194351
0.16585957 -0.0010110908 0.22197908
0.16586447 -0.0035629361 0.22201255
0.16586937 -0.0061148265 0.22204603
0.16587427 -0.0086667053 0.2220795
0.16587919 -0.011218559 0.22211298
0.16588408 -0.013770383 0.22214645
0.16588928 -0.016481739 0.22218202
0.16589449 -0.01919315 0.22221759
0.16588262 -0.021762818 0.22223593
0.1660192 -0.024343289 0.222091
0.16592655 -0.026831862 0.22230239
0.16600814 -0.029430376 0.22221097
0.16602704 -0.032137699 0.22219226
0.16591719 -0.034750208 0.22170947
0.16594754 -0.03734383 0.22145583
0.16595241 -0.039883241 0.22148915
0.16607179 -0.042535413 0.22133715
0.16597468 -0.045127194 0.22096567
0.16588502 -0.047644272 0.22062309
0.16533762 -0.04998647 0.22062203
0.16818112 0.034606215 0.21950962
0.16832143 0.032789592 0.21956363
0.16838817 0.030279905 0.22016354
0.16841175 0.027770367 0.22055453
0.16836706 0.025194101 0.22063315
0.16837224 0.022495972 0.22066858
0.16837743 0.019797849 0.22070394
0.16833673 0.017217627 0.22079754
0.16837034 0.014674673 0.22122948
0.16838649 0.012072062 0.22180513
0.16839141 0.0095202234 0.22183861
0.16839631 0.0069683399 0.22187208
0.16834274 0.0044438243 0.22171776
0.16839762 0.0017094146 0.22191331
0.168387 -0.00099248393 0.22189842
0.16832757 -0.0035157665 0.22148122
0.1683476 -0.0061652074 0.22194447
0.16842632 -0.0086618355 0.22207712
0.16843122 -0.011213684 0.22211058
0.16849412 -0.013788899 0.22199942
0.16854507 -0.016461799 0.22205438
0.16848032 -0.019151477 0.22218439
0.1685079 -0.021794016 0.22219051
0.16843666 -0.02421141 0.22145936
0.16838983 -0.026891636 0.22144689
0.16842161 -0.029367365 0.22139372
0.16847713 -0.032101445 0.22138478
0.1684823 -0.034799568 0.22142014
0.16848718 -0.037338987 0.22145346
0.1685641 -0.039880376 0.22114906
0.16843417 -0.042457521 0.22062306
0.16848741 -0.045183878 0.22055615
0.16790277 -0.046887182 0.22057904
0.16977394 0.034242842 0.21951289
0.17002636 0.032663964 0.21953343
0.17074123 0.030150056 0.21956575
0.17082164 0.02773165 0.21969886
0.17091118 0.025276016 0.22023259
0.17091191 0.022500819 0.2206662
0.17091711 0.019802691 0.22070158
0.17092198 0.01726328 0.22073488
0.17092684 0.014723867 0.2207682
0.17102477 0.012100609 0.22158022
0.17105229 0.0095527694 0.22173716
0.17106217 0.0069283433 0.22174522
0.17100351 0.0044196444 0.2217855
0.17102641 0.0017322339 0.22167264
0.17104465 -0.00095437421 0.22179052
0.17103806 -0.0035871537 0.22197691
0.17109624 -0.0061183032 0.22193021
0.17108738 -0.0086601749 0.22192195
0.17106596 -0.011276075 0.22195624
0.17093825 -0.01376353 0.22136414
0.17098661 -0.016383987 0.22117627
0.17096904 -0.019093134 0.2213985
0.17092595 -0.021735983 0.22149312
0.17100181 -0.024319649 0.22128037
0.17081603 -0.026751505 0.22131236
0.1710116 -0.029398471 0.22134699
0.17107901 -0.032120671 0.22111431
0.17090973 -0.034748908 0.22066708
0.17091256 -0.037323348 0.22061755
0.17100489 -0.039810419 0.22049876
0.17085269 -0.042335339 0.22051664
0.17022181 -0.044744056 0.22054881
0.17252102 0.029404715 0.21957389
0.17316082 0.027568951 0.21959741
0.1735598 0.025067884 0.21967922
0.17355831 0.022411844 0.22014037
0.17367919 0.019827142 0.2204237
0.17354384 0.017310306 0.22067305
0.17351753 0.014717475 0.22076587
0.17347135 0.012189299 0.22079913
0.17346156 0.0094763767 0.22084846
0.17344841 0.0068227528 0.22089987
0.17344247 0.0042233421 0.22096336
0.17349148 0.0017142119 0.22093654
0.1734966 -0.00083788158 0.22098564
0.17341711 -0.0035172417 0.2210822
0.17348981 -0.0062024491 0.22105578
0.17351159 -0.0087608676 0.22107396
0.17346731 -0.011288939 0.22115193
0.17352134 -0.013839729 0.22114058
0.17352623 -0.016379144 0.22117388
0.17353141 -0.019077269 0.2212093
0.17353663 -0.021775389 0.22124468
0.17356303 -0.024332225 0.2212628
0.17382331 -0.026899358 0.22104847
0.17371823 -0.029414995 0.22090717
0.17365178 -0.032015234 0.22052638
0.17342207 -0.034639575 0.22041333
0.17285934 -0.037091561 0.22044601
0.17357208 -0.040070057 0.22048444
0.17366788 -0.041390538 0.22050168
0.17543045 0.024388708 0.21963707
0.17601882 0.02223102 0.21966484
0.17627743 0.019883074 0.2196954
0.17610681 0.017302504 0.21996631
0.17622657 0.01474648 0.22044204
0.17620295 0.012188889 0.22076964
0.17618987 0.0095093679 0.22081967
0.17622453 0.006773904 0.22081436
0.17623679 0.0043103071 0.22075711
0.17618985 0.0017193593 0.22093405
0.17619476 -0.00082005234 0.22096735
0.17619994 -0.0035181814 0.22100276
0.1762051 -0.0062163095 0.22103815
0.17621 -0.0087557286 0.22107145
0.17621484 -0.011295152 0.22110477
0.17625931 -0.013837694 0.22107141
0.1762808 -0.016375627 0.22114357
0.17625713 -0.019049866 0.22071193
0.1763043 -0.021796282 0.22099242
0.17620955 -0.024337159 0.22076984
0.17628528 -0.0268276 0.22036707
0.17635451 -0.029375251 0.22034159
0.17587636 -0.031710137 0.22037266
0.17527464 -0.033659145 0.22039874
0.17582911 -0.040381633 0.22048646
0.17611103 -0.041491158 0.22050077
0.17769626 0.021307206 0.21967539
0.17798506 0.019743437 0.21969567
0.17812151 0.017235523 0.21972847
0.17859702 0.014544912 0.21976334
0.17850265 0.012108563 0.21990256
0.17876294 0.0093785413 0.22013541
0.1786624 0.0070230337 0.22012863
0.17880307 0.004361297 0.21998633
0.17897183 0.0017311331 0.22064756
0.17896922 -0.00086116092 0.22071874
0.17889711 -0.0034999768 0.22066668
0.17886236 -0.0061040591 0.22049241
0.17887141 -0.0086900359 0.22042325
0.17885324 -0.011356747 0.22054298
0.17879324 -0.013873831 0.22025031
0.17879145 -0.016453952 0.22037822
0.1788796 -0.019122165 0.22020477
0.17886712 -0.021789569 0.22023979
0.17838134 -0.024219746 0.22027211
0.17824592 -0.026671614 0.2203044
0.17788273 -0.028780712 0.22033238
0.18024012 0.012625579 0.21978697
0.18107189 0.0090297367 0.21983343
0.18142737 0.0070129475 0.21985957
0.18136153 0.0044150492 0.21989372
0.18133503 0.0017526504 0.21992867
0.18137187 -0.00095475698 0.21996416
0.18137424 -0.003489227 0.21999741
0.1813359 -0.0059257997 0.22002941
0.18131647 -0.0088103693 0.22006728
0.18120401 -0.011304344 0.22010009
0.1813792 -0.013923018 0.22013429
0.18138406 -0.016444979 0.22016737
0.18134294 -0.019042041 0.22020148
0.18127999 -0.021256462 0.22023059
0.18216881 -0.032119274 0.22037227
0.18160291 -0.039016895 0.22046326
0.18312667 0.0037076995 0.2199014
0.18314159 0.0027996013 0.21991327
0.18326829 -0.0015039095 0.21996962
0.18369249 -0.0038247551 0.2199997
0.18390878 -0.0060038781 0.22002809
0.18365446 -0.0083196303 0.22005871
0.18281129 -0.010270233 0.22008502
0.18281858 -0.014060682 0.22013475
0.18328345 -0.016859565 0.22017108
0.18337883 -0.018975897 0.22019877
0.18310827 -0.020969834 0.22022516
0.18285316 -0.032065321 0.22037092
0.18591367 -0.0042853071 0.22000372
0.18589857 -0.0058421381 0.22002415
0.18554401 -0.0076327519 0.22004794
0.083588958 0.011321928 0.22289233
0.083308615 0.008917341 0.22292414
0.083275691 0.0075149164 0.22294255
0.083550401 0.0035754684 0.222994
0.083605878 0.0025071055 0.22300796
0.083476633 -0.0017288481 0.22306363
0.083496213 -0.0029823477 0.22308007
0.084438719 0.011829017 0.22288489
0.08423385 0.009358108 0.22291751
0.083916903 0.0074760746 0.22294249
0.085311092 0.003830404 0.22298911
0.085228592 0.001564377 0.22301896
0.085215487 -0.0010157637 0.22305283
0.085252404 -0.0035479511 0.22308601
0.085759073 -0.0058680237 0.22311582
0.086120784 -0.0087366784 0.22315316
0.086065292 -0.011488257 0.22318929
0.085794427 -0.014156796 0.22322458
0.086047061 -0.016720634 0.22325796
0.085954994 -0.018855616 0.22328608
0.088882037 0.030243896 0.22263925
0.088730238 0.021653129 0.22275209
0.088609412 0.020184521 0.2227715
0.089027792 0.016941758 0.22281365
0.08853507 0.014492551 0.2228462
0.088772446 0.012014711 0.22287852
0.088619217 0.0091220923 0.22291659
0.088290051 0.0065519372 0.22295062
0.087930441 0.0041180616 0.22298297
0.087935373 0.0015537562 0.22301662
0.087890275 -0.00096074119 0.22304964
0.087287128 -0.0033827005 0.22308186
0.087600335 -0.0065605659 0.22312325
0.087955073 -0.0087034954 0.22315118
0.08796031 -0.011428071 0.22318694
0.087965533 -0.014152659 0.22322266
0.087970465 -0.016716953 0.22325629
0.088030532 -0.019257534 0.22328955
0.088151321 -0.021245737 0.22331542
0.090388253 0.031867273 0.22261661
0.090246186 0.030175976 0.22263893
0.090608157 0.028644491 0.22265868
0.090461113 0.021752598 0.22274919
0.090488374 0.019874075 0.22277392
0.090482488 0.017247265 0.22280841
0.09047465 0.014700739 0.22284183
0.090479895 0.011976164 0.22287759
0.090500683 0.0092257652 0.22291362
0.090490043 0.0066872602 0.22294694
0.090494975 0.0041229567 0.22298057
0.0904999 0.0015586363 0.22301422
0.09061487 -0.00052465312 0.2230413
0.090676531 -0.006949896 0.22312561
0.090519607 -0.0086986013 0.22314878
0.090524837 -0.011423181 0.22318454
0.090530068 -0.01414776 0.22322026
0.090535 -0.01671207 0.22325389
0.090539917 -0.01927639 0.22328754
0.090543307 -0.021039354 0.22331056
0.092984296 0.021826096 0.22274591
0.093029335 0.019834254 0.22277215
0.09303426 0.017269945 0.22280578
0.093039192 0.014705632 0.22283943
0.09304443 0.011981053 0.22287519
0.093049653 0.0092564858 0.22291091
0.093054578 0.0066921571 0.22294454
0.093059503 0.0041278433 0.22297817
0.09284611 0.0017362079 0.22300969
0.092896558 -0.0011613774 0.22304766
0.093429215 -0.0035758521 0.2230788
0.093163565 -0.0062025823 0.2231136
0.093084134 -0.0086937035 0.22314638
0.093089364 -0.011418283 0.22318214
0.093094602 -0.014142871 0.22321786
0.09309952 -0.016707178 0.22325149
0.093104452 -0.019271497 0.22328514
0.092626832 -0.020955238 0.22330756
0.095658734 0.021831201 0.22274341
0.095501199 0.020142464 0.22276577
0.095458634 0.017016174 0.22280683
0.095603719 0.014710527 0.22283703
0.09560895 0.01198595 0.22287279
0.095614187 0.0092613716 0.22290851
0.095619112 0.0066970512 0.22294214
0.095581152 0.0042074481 0.22297482
0.094745405 0.0026085014 0.22299649
0.094678961 -0.0045236414 0.22309013
0.095433652 -0.0065466673 0.22311592
0.095622785 -0.0086733475 0.2231438
0.095653899 -0.011413395 0.22317974
0.095659129 -0.014137968 0.22321546
0.095664054 -0.016702281 0.22324909
0.095645383 -0.019290298 0.22328305
0.095768914 -0.021789968 0.22331573
0.096118458 -0.02379337 0.22334163
0.096811593 -0.03000251 0.22342245
0.098671958 0.034910403 0.22256911
0.097673938 0.021724185 0.22274306
0.098158404 0.019844044 0.22276735
0.098163329 0.017279737 0.22280098
0.098168246 0.014715424 0.22283463
0.098173484 0.011990841 0.22287039
0.098204553 0.009276649 0.22290595
0.098183647 0.0067019416 0.22293974
0.098223701 0.0042327754 0.2229721
0.097216174 -0.0069869542 0.22312012
0.097617596 -0.0090568177 0.22374693
0.098208129 -0.011453805 0.22330467
0.098223656 -0.014133082 0.22321306
0.098228589 -0.016697392 0.22324669
0.098233514 -0.019261699 0.22328034
0.098238438 -0.02182601 0.22331397
0.098262057 -0.023948571 0.22334167
0.099179097 -0.027561879 0.22338827
0.098295093 -0.029685067 0.22341698
0.098450772 -0.031896457 0.22344583
0.099159472 -0.035013534 0.22348608
0.099256456 -0.037236705 0.22351514
0.10060412 0.034971792 0.22256659
0.10063474 0.033668976 0.22258362
0.10072033 0.019682836 0.2227671
0.10072786 0.017284626 0.22279859
0.10073278 0.014720317 0.22283223
0.10073801 0.011995735 0.222868
0.10074325 0.009271156 0.22290371
0.10074817 0.0067068432 0.22293735
0.1007531 0.0041425321 0.22297099
0.10096984 0.0025669606 0.22299138
0.099634618 -0.010015631 0.22415775
0.10076842 -0.01156335 0.22377069
0.10081645 -0.014098202 0.22327083
0.10079312 -0.016692489 0.22324429
0.10079804 -0.019256806 0.22327794
0.10080297 -0.021821111 0.22331157
0.10080789 -0.024385434 0.22334521
0.10081282 -0.026949741 0.22337885
0.10085398 -0.029534666 0.22341272
0.10084845 -0.032042131 0.22344562
0.10086002 -0.034834921 0.22348227
0.10087244 -0.03747227 0.22351684
0.10114382 -0.039969835 0.22354923
0.10232056 0.034482352 0.2225714
0.10237928 0.03371546 0.22258143
0.10427303 0.024118897 0.2227056
0.10400105 0.022306731 0.22272961
0.10330821 0.019817682 0.222763
0.10329238 0.017289521 0.22279619
0.10329731 0.01472521 0.22282983
0.10327055 0.011968514 0.22286603
0.10330778 0.0092760548 0.22290131
0.1033127 0.0067117307 0.22293495
0.10331763 0.0041474272 0.22296859
0.10340594 0.0020893905 0.22299536
0.10430044 -0.0074299588 0.22411959
0.10393531 -0.0089951241 0.22414038
0.10345034 -0.011554402 0.22417432
0.1033504 -0.014068106 0.22366583
0.10335764 -0.016687609 0.2232419
0.10336258 -0.019251917 0.22327554
0.1033675 -0.02181622 0.22330917
0.10337242 -0.024380539 0.22334281
0.10337734 -0.026944833 0.22337645
0.10338227 -0.029509157 0.22341008
0.1033872 -0.032073483 0.22344373
0.10339243 -0.034798037 0.22347949
0.10329145 -0.037332319 0.22351277
0.10242202 -0.039536767 0.22354242
0.10325772 -0.042891942 0.22358565
0.10344283 -0.04435005 0.22360466
0.10693549 0.039894551 0.22249621
0.10693704 0.0390932 0.22250673
0.10681786 0.034381039 0.22256866
0.10589424 0.032633666 0.22259244
0.10590234 0.030021582 0.22262663
0.10617483 0.027555719 0.2226588
0.10587839 0.024956398 0.22269325
0.10584706 0.022423046 0.22272651
0.10585199 0.019858729 0.22276016
0.10585692 0.017294412 0.22279379
0.10589279 0.014766354 0.22282693
0.10592377 0.011939643 0.222864
0.1058723 0.0092809498 0.22289892
0.10585962 0.0067119207 0.22294848
0.10600291 0.0041856142 0.2230155
0.10590485 0.0016058479 0.22299957
0.1061757 -0.00074264454 0.22303003
0.10687216 -0.0046872338 0.22408126
0.10642605 -0.0066373181 0.22410718
0.10592713 -0.0089046042 0.22410339
0.10595244 -0.011447115 0.22375891
0.10584255 -0.014107733 0.22393586
0.1059581 -0.016609376 0.22336894
0.1059271 -0.019247018 0.22327314
0.10593203 -0.021811323 0.22330678
0.10593695 -0.02437564 0.22334041
0.10594188 -0.026939945 0.22337405
0.1059468 -0.029504262 0.22340769
0.10595173 -0.03206858 0.22344133
0.10595696 -0.034793142 0.2234771
0.10612203 -0.037286639 0.22350958
0.10708695 -0.038958017 0.22353059
0.10906809 0.042249244 0.22246337
0.10858779 0.040635459 0.22248508
0.10872731 0.038541261 0.22251232
0.10894084 0.035298351 0.22255474
0.10863943 0.032773074 0.22258818
0.10877468 0.029993914 0.22262451
0.10856203 0.027556859 0.22265671
0.10856695 0.024992555 0.22269036
0.10857188 0.022428241 0.22272399
0.1085768 0.019863926 0.22275764
0.10858173 0.017299617 0.22279127
0.10858665 0.014735306 0.22282492
0.10859188 0.012010725 0.22286062
0.10859712 0.0092861503 0.2228964
0.10862067 0.0067319777 0.22297211
0.10858975 0.0041734492 0.22299087
0.1086119 0.0015932089 0.22299731
0.10861682 -0.0009710975 0.22303094
0.1087558 -0.0036320467 0.22338873
0.10863468 -0.0061911126 0.22357158
0.1086318 -0.0086668292 0.22314577
0.10847259 -0.011379655 0.22363815
0.10853899 -0.014057674 0.22410417
0.10863407 -0.01657524 0.22341062
0.10865191 -0.019241817 0.22327062
0.10865684 -0.021806123 0.22330426
0.10866176 -0.024370439 0.22333789
0.10866669 -0.026934747 0.22337154
0.10867162 -0.029499065 0.22340517
0.10867655 -0.032063387 0.22343881
0.10869784 -0.034803931 0.22347473
0.10868701 -0.037512548 0.2235103
0.1086311 -0.039311238 0.22353379
0.10918304 -0.045418244 0.22361344
0.10934569 -0.046646666 0.22362942
0.11113252 0.037812639 0.2225197
