# .PCD v0.7 - Point Cloud Data file format
VERSION 0.7
FIELDS x y z
SIZE 4 4 4
TYPE F F F
COUNT 1 1 1
WIDTH 1330
HEIGHT 1
VIEWPOINT 0 0 0 1 0 0 0
POINTS 1330
DATA ascii
-0.022248376 -0.026503064 0.22307417
-0.019762322 -0.027132407 0.22305852
-0.017315187 -0.02778497 0.22304338
-0.01471892 -0.028447427 0.22315565
-0.012304112 -0.029020451 0.22301161
-0.0098180398 -0.029649802 0.22299598
-0.007176578 -0.030318491 0.22297934
-0.0045351535 -0.030987166 0.22296275
-0.00312493 -0.03172994 0.22295675
-0.16228843 0.011813835 0.22393268
-0.16022575 0.011162332 0.22419351
-0.15787485 0.01048031 0.22490649
-0.15528865 0.0098592155 0.22488995
-0.15258403 0.0091789123 0.22487292
-0.1500859 0.0085465107 0.2248572
-0.14761141 0.0079634348 0.22484131
-0.1454367 0.0077377586 0.22482519
-0.14227539 0.0078983605 0.22479799
-0.13972579 0.0063022673 0.22478919
-0.13869105 0.0046651009 0.2247934
-0.13508505 0.004735006 0.22476298
-0.13259897 0.0041196942 0.22474721
-0.13010085 0.0034872899 0.2247315
-0.1276027 0.0028548879 0.2247158
-0.12510456 0.0022224872 0.22470008
-0.12260643 0.0015900796 0.22468437
-0.11995216 0.00091815321 0.22466773
-0.1172979 0.00024622492 0.22465098
-0.11479976 -0.00038617477 0.22463527
-0.11230163 -0.0010185787 0.22461957
-0.10991471 -0.0011591946 0.22460102
-0.1081612 -0.0010699159 0.22458601
-0.10386734 -0.0020904536 0.22455849
-0.10241958 -0.0024549288 0.22379935
-0.096577063 -0.0042075915 0.22351466
-0.09461879 -0.0053420337 0.22350736
-0.092131123 -0.0060054529 0.22409505
-0.089687034 -0.0066103023 0.22353622
-0.087149851 -0.007262608 0.22346063
-0.084663786 -0.0078919586 0.22344498
-0.082177721 -0.0085213054 0.22342935
-0.079691648 -0.0091506485 0.22341372
-0.077205591 -0.009779999 0.22339807
-0.074642912 -0.010414511 0.22342664
-0.071913794 -0.011131225 0.2242263
-0.069501013 -0.011712719 0.2234799
-0.06695056 -0.012376061 0.22333358
-0.064464509 -0.013005406 0.22331795
-0.061978433 -0.013634752 0.22330232
-0.059492383 -0.014264097 0.22328667
-0.057006307 -0.014893447 0.22327104
-0.054520234 -0.015522797 0.22325541
-0.051878799 -0.016191475 0.22323883
-0.049237356 -0.016860157 0.22322218
-0.046751276 -0.017489508 0.22320655
-0.044265218 -0.018118851 0.2231909
-0.041833039 -0.0186578 0.22317499
-0.039293084 -0.019377548 0.22315964
-0.036807001 -0.020006901 0.22314399
-0.034320962 -0.020636246 0.22312836
-0.031834897 -0.021265589 0.22311273
-0.029193457 -0.021934271 0.22309615
-0.026551988 -0.022602953 0.2230795
-0.024065942 -0.0232323 0.22306387
-0.021579884 -0.023861647 0.22304823
-0.019093812 -0.024490997 0.22303259
-0.016620621 -0.025098715 0.2230169
-0.014174484 -0.0258362 0.22308938
-0.011635616 -0.026379041 0.22298568
-0.0091495514 -0.027008384 0.22297005
-0.0065080971 -0.027677067 0.22295347
-0.0043491349 -0.028433628 0.22294134
-0.16143973 0.014034881 0.22390851
-0.15956175 0.013732149 0.22389549
-0.15715298 0.01318699 0.22470225
-0.15456656 0.012505078 0.22486357
-0.15191227 0.011833149 0.2248469
-0.14941415 0.011200749 0.22483119
-0.14691602 0.01056835 0.22481547
-0.14441788 0.0099359453 0.22479977
-0.14191973 0.0093035437 0.22478405
-0.13942161 0.0086711366 0.22476834
-0.13686034 0.008121307 0.22475147
-0.13457207 0.0073188748 0.22473882
-0.13191174 0.006762105 0.22472116
-0.12942907 0.0061415257 0.22470549
-0.12693094 0.0055091213 0.22468978
-0.1244328 0.004876717 0.22467408
-0.12193467 0.0042443192 0.22465836
-0.1192804 0.0035723932 0.22464165
-0.11662614 0.0029004635 0.22462498
-0.114128 0.0022680606 0.22460926
-0.11162987 0.0016356544 0.22459355
-0.10911044 0.00096034771 0.22457799
-0.10721299 0.00047100848 0.22456625
-0.1037965 -0.00011002831 0.2245425
-0.10164235 -0.00089504337 0.22448389
-0.099216059 -0.0013451024 0.22443426
-0.096548721 -0.0023131159 0.22349989
-0.093978867 -0.0028885265 0.22348316
-0.091492794 -0.0035178782 0.22346751
-0.089006722 -0.0041472274 0.22345188
-0.086520664 -0.0047765695 0.22343625
-0.084034592 -0.0054059168 0.22342061
-0.081548542 -0.0060352641 0.22340497
-0.079062454 -0.0066646151 0.22338934
-0.076576412 -0.0072939619 0.22337371
-0.073934957 -0.0079626422 0.22335713
-0.07129351 -0.0086313263 0.22334048
-0.068807453 -0.0092606694 0.22332485
-0.06632138 -0.0098900199 0.2233092
-0.063835323 -0.010519369 0.22329357
-0.061349254 -0.01114871 0.22327794
-0.0588632 -0.011778062 0.2232623
-0.056377113 -0.012407411 0.22324666
-0.05389104 -0.013036763 0.22323103
-0.051249616 -0.013705434 0.22321445
-0.048608165 -0.014374121 0.2231978
-0.046122085 -0.015003468 0.22318217
-0.043636031 -0.015632819 0.22316653
-0.041149966 -0.016262164 0.22315089
-0.038681205 -0.016927784 0.22313567
-0.036177836 -0.017520856 0.22311963
-0.033691771 -0.018150207 0.22310399
-0.03120571 -0.01877955 0.22308835
-0.028564256 -0.019448243 0.22307177
-0.025922805 -0.020116916 0.22305512
-0.023436751 -0.020746268 0.22303949
-0.02095069 -0.021375611 0.22302386
-0.018464606 -0.022004962 0.22300822
-0.015830524 -0.022673152 0.22333029
-0.013523422 -0.023233999 0.22300728
-0.011157028 -0.023905978 0.22296262
-0.008359462 -0.024843764 0.22294673
-0.0058788955 -0.025191035 0.22292909
-0.0033175424 -0.02570954 0.22291192
-0.0016424358 -0.025436837 0.22289595
-0.16072975 0.016883697 0.22388068
-0.15891966 0.016196549 0.22387117
-0.15650736 0.015618776 0.22434002
-0.1539343 0.015003187 0.22483908
-0.15128003 0.014331258 0.2248224
-0.1487819 0.013698856 0.2248067
-0.1463619 0.01306408 0.22479165
-0.14333989 0.011241333 0.22478096
-0.14124347 0.01174965 0.22475959
-0.13878939 0.011169241 0.22474384
-0.13647151 0.010335119 0.22473121
-0.13376039 0.0098854424 0.2247123
-0.13129497 0.0092720399 0.22469671
-0.12879683 0.0086396318 0.224681
-0.1262987 0.0080072321 0.22466528
-0.12380057 0.0073748278 0.22464958
-0.12130243 0.0067424243 0.22463386
-0.11864816 0.0060704965 0.22461715
-0.1159939 0.005398564 0.22460048
-0.1136159 0.0046945624 0.22458632
-0.11110048 0.0042666048 0.22456889
-0.10832813 0.0035697464 0.22455142
-0.10598293 0.0029418152 0.22453691
-0.10350323 0.0022365609 0.22452192
-0.10100509 0.0016041519 0.22450621
-0.098618209 0.0010948419 0.22449048
-0.095709607 0.00045090169 0.22360368
-0.093389109 -0.00041632401 0.22374246
-0.090941191 -0.00095142447 0.22415274
-0.088456608 -0.0015986888 0.22362766
-0.085891478 -0.0022905343 0.22341187
-0.083405413 -0.0029198886 0.22339624
-0.080941498 -0.0034975437 0.22338037
-0.078429736 -0.0041783154 0.22338055
-0.075947218 -0.0048079239 0.22334933
-0.073305771 -0.0054766042 0.22333275
-0.070664324 -0.0061452924 0.2233161
-0.068178259 -0.0067746351 0.22330047
-0.065692186 -0.0074039903 0.22328483
-0.063206136 -0.0080333296 0.22326919
-0.060720056 -0.0086626802 0.22325356
-0.058233995 -0.0092920288 0.22323792
-0.055747934 -0.0099213729 0.22322229
-0.053261861 -0.010550719 0.22320665
-0.050620433 -0.011219408 0.22319007
-0.047978975 -0.011888088 0.22317342
-0.045492914 -0.012517435 0.22315779
-0.043006849 -0.013146779 0.22314216
-0.040520787 -0.013776121 0.22312652
-0.038034711 -0.014405475 0.22311088
-0.035548646 -0.015034825 0.22309525
-0.033062592 -0.01566417 0.22307961
-0.030576516 -0.016293515 0.22306398
-0.02793508 -0.016962204 0.22304739
-0.025293622 -0.017630879 0.22303075
-0.022807561 -0.018260233 0.22301511
-0.0203215 -0.018889576 0.22299948
-0.01783542 -0.019518934 0.22298384
-0.015349358 -0.020148275 0.22296821
-0.012863308 -0.02077762 0.22295257
-0.01033403 -0.021412097 0.22301471
-0.0078911707 -0.022036318 0.2229213
-0.0052497163 -0.022705 0.22290471
-0.0026082918 -0.023373682 0.22288807
-0.0003253147 -0.023582797 0.22287072
0.0015514791 -0.023269396 0.22285289
-0.16223434 0.019906428 0.22386976
-0.16077653 0.019311927 0.22386242
-0.15829048 0.018682584 0.22384679
-0.15592691 0.018150762 0.22464375
-0.15330207 0.017501287 0.22481459
-0.15064779 0.01682936 0.2247979
-0.14814967 0.016196962 0.2247822
-0.14568935 0.015563411 0.22476681
-0.14048713 0.014236049 0.22473419
-0.1382263 0.013612865 0.22472034
-0.1356377 0.012992044 0.22470379
-0.13316086 0.012402543 0.22468793
-0.13066272 0.011770136 0.22467221
-0.12816459 0.011137734 0.22465651
-0.12566647 0.010505335 0.22464079
-0.12318598 0.0098666837 0.22462527
-0.12067018 0.0092405304 0.22460938
-0.11801592 0.008568597 0.22459266
-0.11536165 0.0078966748 0.22457598
-0.11288482 0.0073071755 0.22456011
-0.11036539 0.006631868 0.22454455
-0.10786726 0.0059994655 0.22452885
-0.10536912 0.0053670648 0.22451314
-0.10287099 0.0047346586 0.22449742
-0.10037285 0.0041022599 0.22448172
-0.097874716 0.0034698518 0.224466
-0.095361076 0.0027754144 0.22418204
-0.092832096 0.002225297 0.22431931
-0.090343557 0.0015869946 0.22434273
-0.08787787 0.00081924396 0.22374745
-0.085320249 0.00015746336 0.22343743
-0.082776226 -0.00043384731 0.22337186
-0.080290161 -0.0010631965 0.22335622
-0.077790074 -0.0016913242 0.22340296
-0.075318038 -0.0023218871 0.22332495
-0.072874606 -0.0032202397 0.22331169
-0.070035137 -0.003659253 0.22329172
-0.06754908 -0.0042886036 0.22327609
-0.065063 -0.0049179555 0.22326045
-0.06257695 -0.0055472944 0.22324482
-0.060090877 -0.0061766375 0.22322918
-0.057604823 -0.0068059852 0.22321355
-0.055108368 -0.007435319 0.22322908
-0.052632675 -0.0080646873 0.22318228
-0.049991243 -0.0087333638 0.22316569
-0.047386266 -0.0094497381 0.2231497
-0.044863716 -0.010031397 0.22313341
-0.042374637 -0.01067988 0.2231179
-0.039891589 -0.011290092 0.22310214
-0.037398893 -0.011947757 0.22325057
-0.034915395 -0.012501269 0.22320475
-0.032433409 -0.01317814 0.22305523
-0.029947326 -0.01380749 0.2230396
-0.027305909 -0.014476162 0.22302301
-0.024664432 -0.01514485 0.22300637
-0.022178378 -0.015774192 0.22299074
-0.019692324 -0.016403541 0.22297511
-0.017206237 -0.017032888 0.22295946
-0.014720172 -0.017662236 0.22294383
-0.012247019 -0.018269949 0.22292814
-0.0096201748 -0.018949671 0.22318862
-0.0072619617 -0.019550279 0.22289692
-0.0046205297 -0.020218967 0.22288033
-0.0019790903 -0.020887643 0.2228637
0.00050696731 -0.02151699 0.22284806
0.0017874241 -0.022337131 0.22284375
-0.1617817 0.021219712 0.2238559
-0.15997165 0.021452885 0.22383916
-0.15766129 0.021168627 0.22382241
-0.15528595 0.020637646 0.22455679
-0.15266983 0.019999389 0.2247901
-0.15028152 0.018820442 0.22477958
-0.14733912 0.018217977 0.22475998
-0.14509939 0.018068861 0.22474261
-0.14128205 0.018168766 0.22471052
-0.13974687 0.017025247 0.22470658
-0.13802895 0.017455999 0.22468922
-0.13452077 0.014906556 0.22467996
-0.13251567 0.014878904 0.2246635
-0.13003048 0.014268239 0.22464772
-0.12753236 0.013635837 0.22463201
-0.12503421 0.013003442 0.2246163
-0.12253609 0.012371034 0.22460058
-0.12003795 0.011738635 0.22458488
-0.11738368 0.011066702 0.22456817
-0.1147294 0.010394783 0.22455148
-0.11223128 0.0097623803 0.22453578
-0.10973315 0.0091299769 0.22452006
-0.10723501 0.0084975706 0.22450435
-0.10473688 0.0078651737 0.22448865
-0.10223874 0.0072327694 0.22447293
-0.099778414 0.0065992158 0.22445753
-0.097194552 0.0059313159 0.22444139
-0.094829746 0.0054242145 0.22442582
-0.092123441 0.0047391076 0.22440881
-0.08967565 0.0040063886 0.22390828
-0.087148018 0.0033662766 0.22346051
-0.084686704 0.002683694 0.22345443
-0.082147047 0.0020521884 0.22334749
-0.079660974 0.0014228411 0.22333184
-0.077174902 0.0007935008 0.22331621
-0.074688852 0.00016414514 0.22330058
-0.072071016 -0.00034897355 0.22328295
-0.069405951 -0.0011732182 0.22326735
-0.066919893 -0.0018025618 0.22325172
-0.064433821 -0.0024319135 0.22323608
-0.061947756 -0.0030612545 0.22322044
-0.05946169 -0.0036906058 0.22320481
-0.056975637 -0.0043199509 0.22318918
-0.05448956 -0.0049493038 0.22317353
-0.052003484 -0.0055786488 0.2231579
-0.04936206 -0.0062473337 0.22314131
-0.046720598 -0.0069160126 0.22312467
-0.044234529 -0.0075453613 0.22310904
-0.041748464 -0.0081747072 0.22309341
-0.039262418 -0.0088040568 0.22307776
-0.036799103 -0.0093825925 0.22311109
-0.034297206 -0.010084547 0.22319594
-0.031804215 -0.010692098 0.22303087
-0.029318146 -0.01132144 0.22301522
-0.0266767 -0.011990122 0.22299863
-0.024066277 -0.012686674 0.22299857
-0.02158533 -0.013289598 0.22312796
-0.019100502 -0.013818174 0.22356124
-0.016679622 -0.014472082 0.22370796
-0.014088154 -0.015093515 0.22352429
-0.011633672 -0.01575307 0.22304854
-0.0091188699 -0.016434897 0.22288819
-0.0066327751 -0.017064245 0.22287254
-0.0039913431 -0.017732922 0.22285597
-0.0014718473 -0.018323496 0.2228397
0.001249209 -0.018859431 0.22282128
-0.15849563 0.023896564 0.22380814
-0.1570321 0.023654647 0.22379804
-0.15457919 0.023058794 0.22401676
-0.15208329 0.022545189 0.22476563
-0.14939758 0.022675678 0.22474262
-0.14653392 0.021089144 0.22473128
-0.14520916 0.019938208 0.22472924
-0.14110669 0.019679781 0.22469738
-0.13939078 0.019295961 0.22468607
-0.13719109 0.018797252 0.22467184
-0.13127102 0.017025083 0.22463678
-0.12939824 0.016766347 0.22462323
-0.12690011 0.016133942 0.22460751
-0.12440198 0.015501547 0.22459181
-0.12190384 0.014869149 0.22457609
-0.11940571 0.014236736 0.22456038
-0.11675144 0.013564813 0.22454368
-0.11409718 0.012892877 0.22452699
-0.11159904 0.012260486 0.22451128
-0.10910091 0.011628074 0.22449557
-0.10660277 0.010995678 0.22447985
-0.10410464 0.010363267 0.22446415
-0.10163557 0.009700723 0.2244489
-0.099108368 0.0090984721 0.22443272
-0.096610233 0.0084660659 0.22441702
-0.094099142 0.0078119133 0.22440135
-0.091503255 0.0071993815 0.22431117
-0.089027643 0.0064146202 0.2234899
-0.086489975 0.0057969261 0.22335437
-0.084003918 0.0051675765 0.22333874
-0.081517853 0.0045382269 0.22332311
-0.079031788 0.0039088763 0.22330748
-0.076545715 0.0032795332 0.22329183
-0.07405965 0.002650186 0.2232762
-0.071418203 0.0019815071 0.22325961
-0.068776764 0.0013128184 0.22324297
-0.066290706 0.00068347622 0.22322734
-0.063804626 5.4135453e-05 0.22321171
-0.061318569 -0.00057521742 0.22319606
-0.058832496 -0.0012045689 0.22318043
-0.056346431 -0.001833912 0.2231648
-0.053860374 -0.0024632718 0.22314915
-0.051374309 -0.0030926126 0.22313352
-0.048732862 -0.0037612985 0.22311693
-0.046091411 -0.0044299723 0.22310029
-0.043605357 -0.0050593307 0.22308466
-0.041119285 -0.0056886757 0.22306903
-0.03863322 -0.0063180178 0.2230534
-0.036162548 -0.006935603 0.22303779
-0.033553895 -0.007531337 0.22302085
-0.031175032 -0.0082060583 0.22300649
-0.028688964 -0.0088354079 0.22299084
-0.026047517 -0.0095040947 0.22297426
-0.023420338 -0.010104277 0.22356127
-0.021041688 -0.010664104 0.22394173
-0.018543556 -0.011296526 0.22392602
-0.015952043 -0.011967708 0.2235381
-0.013504691 -0.01270627 0.22292586
-0.010975748 -0.013319506 0.22287944
-0.0084896833 -0.013948846 0.22286381
-0.0060036033 -0.014578206 0.22284818
-0.003362149 -0.015246889 0.22283159
-0.0008584559 -0.016016511 0.22281682
0.0012583882 -0.017099477 0.22280768
-0.1578792 0.026448291 0.22378336
-0.15640292 0.026140705 0.22377366
-0.15402737 0.025633529 0.2245391
-0.15140533 0.024995599 0.2247411
-0.14875107 0.024323676 0.22472443
-0.14630917 0.023808628 0.22470829
-0.14400119 0.023815986 0.22468933
-0.14036067 0.021590482 0.22467652
-0.13874647 0.021773823 0.22466165
-0.13626041 0.021161661 0.22464587
-0.13438803 0.021163922 0.22463058
-0.1310302 0.020010285 0.22461165
-0.128766 0.019264445 0.22459874
-0.12626787 0.018632043 0.22458301
-0.12376974 0.017999649 0.22456731
-0.1212716 0.017367244 0.2245516
-0.11877348 0.016734838 0.22453588
-0.1161192 0.016062912 0.22451918
-0.11346494 0.01539098 0.2245025
-0.11095503 0.01475297 0.22448674
-0.10846867 0.014126179 0.22447108
-0.10597053 0.01349377 0.22445536
-0.1034724 0.012861381 0.22443965
-0.10103049 0.012346325 0.22442351
-0.098397866 0.011643221 0.22440723
-0.095961735 0.010861504 0.22439317
-0.093458124 0.010344717 0.22437653
-0.090981729 0.0096993623 0.22436109
-0.088411361 0.0089909658 0.22399332
-0.085875273 0.0083063617 0.22334532
-0.083374731 0.0076536098 0.22331436
-0.080888666 0.0070242714 0.22329873
-0.078402609 0.0063949013 0.2232831
-0.075916544 0.0057655601 0.22326745
-0.073430471 0.0051362263 0.22325182
-0.070789024 0.0044675255 0.22323523
-0.068147577 0.0037988592 0.22321859
-0.065696105 0.0032580746 0.22320253
-0.06317544 0.0025401581 0.22318733
-0.060689382 0.0019108173 0.22317168
-0.05820331 0.0012814701 0.22315605
-0.055717267 0.00065211207 0.22314042
-0.053231191 2.2781081e-05 0.22312479
-0.050745111 -0.00060656993 0.22310914
-0.048103686 -0.0012752593 0.22309256
-0.045462232 -0.0019439296 0.22307593
-0.042976171 -0.0025732876 0.22306028
-0.040490098 -0.0032026353 0.22304465
-0.038004033 -0.0038319859 0.22302902
-0.035517957 -0.0044613439 0.22301337
-0.033031896 -0.0050906809 0.22299774
-0.030545842 -0.0057200314 0.22298211
-0.028059766 -0.0063493829 0.22296646
-0.025418345 -0.0070180586 0.22294989
-0.022813018 -0.0076260981 0.22293305
-0.020271871 -0.0082351239 0.2233405
-0.01780732 -0.0089251343 0.22333658
-0.015378401 -0.0096013956 0.2229318
-0.012832627 -0.010204122 0.22287071
-0.010346562 -0.010833466 0.22285506
-0.0078605041 -0.011462824 0.22283943
-0.0053744242 -0.012092168 0.2228238
-0.0028543845 -0.012785226 0.22280838
-0.0013246462 -0.014164476 0.22280632
-0.15572992 0.028574977 0.22374931
-0.15340476 0.028139248 0.22457711
-0.15077311 0.027493712 0.2247166
-0.14811882 0.026821777 0.22469993
-0.1456207 0.026189372 0.22468422
-0.14315507 0.025611509 0.22466835
-0.14040516 0.025162451 0.22464918
-0.1381263 0.024292152 0.22463708
-0.13562816 0.023659762 0.22462137
-0.13313003 0.02302736 0.22460566
-0.13063189 0.022394966 0.22458994
-0.12813376 0.021762557 0.22457424
-0.12563562 0.021130156 0.22455852
-0.12315923 0.020484798 0.22454309
-0.12059087 0.019686937 0.22452809
-0.11814123 0.019232947 0.22451138
-0.11548696 0.018561017 0.22449468
-0.11280548 0.017722096 0.22447908
-0.11033456 0.017256688 0.22446229
-0.10783643 0.016624279 0.22444658
-0.10539649 0.015897766 0.22443208
-0.10284016 0.015359481 0.22441515
-0.10034202 0.01472707 0.22439945
-0.097887926 0.014146664 0.2243837
-0.095064007 0.013762777 0.22436342
-0.092824221 0.012839706 0.22433665
-0.090354867 0.01216505 0.22422582
-0.087851353 0.011565066 0.22432089
-0.085290506 0.010854631 0.22381356
-0.082801774 0.010171411 0.22342254
-0.08025948 0.0095102936 0.22327435
-0.077773422 0.0088809505 0.22325872
-0.075287342 0.0082516 0.22324307
-0.072801292 0.0076222531 0.22322744
-0.070159838 0.0069535598 0.22321086
-0.067518391 0.0062848926 0.22319421
-0.065032326 0.0056555513 0.22317858
-0.062546261 0.0050261859 0.22316295
-0.060060196 0.0043968502 0.22314732
-0.057574119 0.0037675034 0.22313167
-0.055088066 0.0031381585 0.22311604
-0.052602001 0.0025088037 0.22310041
-0.050115928 0.0018794546 0.22308476
-0.0474745 0.0012107836 0.22306819
-0.044833042 0.00054208934 0.22305155
-0.042346977 -8.7259337e-05 0.2230359
-0.039860912 -0.0007165866 0.22302027
-0.037374854 -0.0013459513 0.22300464
-0.034888778 -0.0019752891 0.22298899
-0.032381728 -0.0026034622 0.22302005
-0.029916655 -0.0032339939 0.22295773
-0.027430587 -0.0038633388 0.2229421
-0.02478914 -0.0045320145 0.22292551
-0.022147685 -0.0052007115 0.22290887
-0.019782253 -0.0058845989 0.2229297
-0.017111041 -0.0063261162 0.22373797
-0.014772736 -0.0069829701 0.22318648
-0.012203425 -0.0077181086 0.22284633
-0.009717375 -0.0083474293 0.22283068
-0.0072313175 -0.0089767668 0.22281505
-0.004745245 -0.0096061304 0.22279942
-0.0021325573 -0.010239189 0.22278278
0.00037079304 -0.010395236 0.2227632
-0.15475205 0.030616619 0.22372538
-0.15271229 0.030686475 0.22413662
-0.15014085 0.029991824 0.22469211
-0.14758855 0.029366124 0.22467594
-0.14483857 0.028694864 0.22465844
-0.14249033 0.028055087 0.22464401
-0.13999218 0.027422674 0.2246283
-0.13749406 0.02679028 0.22461259
-0.13499592 0.02615789 0.22459687
-0.13249779 0.025525473 0.22458117
-0.12999965 0.02489306 0.22456545
-0.12750152 0.024260677 0.22454974
-0.12500338 0.023628268 0.22453403
-0.12253286 0.023035005 0.22451824
-0.11980657 0.022551924 0.22449951
-0.11763068 0.021644067 0.22448859
-0.11485472 0.021059129 0.22447018
-0.11217648 0.020397212 0.22445323
-0.10970715 0.019746602 0.2243754
-0.10721298 0.01910824 0.22431292
-0.10471679 0.018635109 0.22440535
-0.10220791 0.0178576 0.22439066
-0.099709779 0.017225184 0.22437495
-0.097226463 0.016580354 0.22425011
-0.094753914 0.015928753 0.2240629
-0.092133187 0.015367233 0.223611
-0.089687884 0.014709971 0.22332779
-0.087086402 0.014106042 0.22396167
-0.084606841 0.013381307 0.2233488
-0.082077034 0.012781055 0.22326411
-0.079590969 0.012151723 0.22324848
-0.077118449 0.011489867 0.22337811
-0.074608289 0.010776982 0.22326343
-0.072132774 0.010263665 0.22320157
-0.069491327 0.009594989 0.22318493
-0.06684988 0.0089263078 0.22316834
-0.064363822 0.0082969517 0.22315271
-0.061877742 0.0076676048 0.22313708
-0.059391692 0.0070382627 0.22312143
-0.056918472 0.0064049475 0.22312002
-0.054431982 0.0057938201 0.22310385
-0.051933482 0.0051502017 0.22307454
-0.049447417 0.0045208717 0.22305889
-0.046805989 0.0038521886 0.22304225
-0.044164527 0.0031835167 0.22302566
-0.041678466 0.0025541722 0.22301003
-0.03922803 0.0018960331 0.22299489
-0.036706336 0.0012954725 0.22297877
-0.034220267 0.00066611543 0.22296312
-0.031493001 0.00011698017 0.22377287
-0.029159889 -0.00055291085 0.22362402
-0.026768524 -0.0011738271 0.22308472
-0.024120651 -0.0018905888 0.22289959
-0.021466017 -0.0025533044 0.22288282
-0.019038588 -0.0030960727 0.22288193
-0.016574532 -0.0037320754 0.22323033
-0.013996899 -0.0044615511 0.22330576
-0.011534907 -0.005076664 0.22282045
-0.0090488642 -0.0057060211 0.22280481
-0.0065628067 -0.0063353782 0.22278918
-0.0040767193 -0.006964724 0.22277355
-0.0014352724 -0.0076334085 0.22275691
0.00089296699 -0.0084971692 0.2227443
-0.15330973 0.033789594 0.22368902
-0.15198763 0.033267383 0.22394376
-0.14950861 0.032489929 0.22466762
-0.14685436 0.031817984 0.22465093
-0.14454986 0.031250291 0.22463633
-0.14152499 0.030404966 0.22461796
-0.13935995 0.029920775 0.2246038
-0.13686182 0.029288381 0.2245881
-0.13436368 0.028655972 0.22457238
-0.13186555 0.028023571 0.22455667
-0.12936741 0.027391165 0.22454096
-0.12683779 0.026756167 0.224525
-0.12437114 0.026126377 0.22450954
-0.12187302 0.025493957 0.22449382
-0.11937487 0.024861563 0.22447811
-0.11687674 0.024229161 0.2244624
-0.11422247 0.023557223 0.22444569
-0.1115665 0.022765368 0.22442994
-0.10907008 0.022252899 0.22441331
-0.10666415 0.021556556 0.22439884
-0.1039995 0.020855602 0.2243823
-0.10157567 0.02035569 0.22436616
-0.099077538 0.019723292 0.22435045
-0.096579403 0.019090891 0.22433475
-0.094100498 0.018455446 0.22431922
-0.091477104 0.01797317 0.22341418
-0.088971101 0.017371159 0.22328545
-0.086556435 0.016550515 0.22403368
-0.083898634 0.016044557 0.22342058
-0.081408523 0.015422477 0.22323819
-0.078922458 0.014793114 0.22322255
-0.076385796 0.014105107 0.22334129
-0.073863313 0.013476982 0.22377658
-0.071384415 0.012909227 0.22356194
-0.068747863 0.012261967 0.223436
-0.066181369 0.01156772 0.22314242
-0.063695312 0.010938373 0.22312678
-0.061209235 0.010309022 0.22311115
-0.058723174 0.0096796835 0.22309551
-0.056237113 0.0090503283 0.22307988
-0.053751055 0.0084209843 0.22306424
-0.051264964 0.0077916346 0.2230486
-0.04877891 0.0071622944 0.22303297
-0.046137471 0.0064936196 0.22301638
-0.043496024 0.0058249226 0.22299974
-0.041009944 0.0051955869 0.22298411
-0.038523886 0.0045662373 0.22296847
-0.036037832 0.0039368775 0.22295283
-0.033551756 0.0033075223 0.2229372
-0.031065691 0.0026781769 0.22292157
-0.028579626 0.0020488412 0.22290593
-0.026093557 0.0014194897 0.22289029
-0.023452122 0.00075080385 0.2228737
-0.020810664 8.2109123e-05 0.22285707
-0.018324602 -0.00054721907 0.22284143
-0.015838556 -0.001176565 0.2228258
-0.013352461 -0.0018059183 0.22281016
-0.010866396 -0.0024352605 0.22279452
-0.008380346 -0.0030646026 0.22277889
-0.0058942884 -0.0036939562 0.22276326
-0.0034082085 -0.0043233153 0.22274761
-0.0007667765 -0.0049920008 0.22273104
0.0018017739 -0.005583365 0.22271438
-0.15299514 0.035032615 0.22367685
-0.15128441 0.035724949 0.22377221
-0.14887638 0.034988016 0.22464313
-0.1462221 0.034316093 0.22462644
-0.14372398 0.033683687 0.22461073
-0.14122584 0.033051286 0.22459503
-0.13872771 0.032418884 0.2245793
-0.13627386 0.031751391 0.22456424
-0.13373144 0.031154074 0.22454789
-0.1312333 0.030521668 0.22453217
-0.12873517 0.029889271 0.22451647
-0.12623703 0.029256877 0.22450075
-0.1240046 0.028426636 0.22448878
-0.12110168 0.027661067 0.22447078
-0.11874264 0.027359661 0.22445361
-0.1162445 0.026727252 0.22443791
-0.11348728 0.026044372 0.22442044
-0.11093596 0.025383402 0.22440451
-0.10874914 0.024453811 0.22439371
-0.10603511 0.024278678 0.22437266
-0.10332961 0.023543771 0.22435603
-0.10094344 0.022853795 0.22434168
-0.098445296 0.022221401 0.22432595
-0.095943876 0.021613121 0.22407126
-0.093449026 0.020956583 0.22429453
-0.090876982 0.020359091 0.22383361
-0.088419721 0.019784335 0.22347377
-0.085932896 0.019072328 0.22424713
-0.083454587 0.018328704 0.22400609
-0.080859132 0.017858382 0.22375862
-0.078312933 0.017226435 0.22337903
-0.075807206 0.016649805 0.22318254
-0.073321134 0.016020462 0.2231669
-0.070836216 0.01542873 0.22315098
-0.068193629 0.014722436 0.22313468
-0.065552182 0.014053761 0.22311804
-0.063066117 0.013424414 0.22310241
-0.060635522 0.012760512 0.22310387
-0.058071479 0.012092107 0.22315484
-0.055607922 0.011536368 0.2230555
-0.053121861 0.010907012 0.22303987
-0.050635785 0.010277683 0.22302422
-0.048159875 0.009552801 0.22300939
-0.045508288 0.0089796456 0.222992
-0.042866841 0.0083109615 0.22297536
-0.040380772 0.0076816222 0.22295973
-0.037894715 0.0070522623 0.2229441
-0.035408653 0.006422908 0.22292846
-0.03292257 0.0057935715 0.22291282
-0.030436505 0.0051642088 0.22289719
-0.027950443 0.0045348657 0.22288156
-0.025464386 0.0039055189 0.22286591
-0.022822931 0.0032368358 0.22284932
-0.020193238 0.002552765 0.2228329
-0.017695431 0.0019388082 0.22281705
-0.015209369 0.001309467 0.22280142
-0.012723282 0.00068012113 0.22278579
-0.010290101 6.7013316e-05 0.2227871
-0.0077599809 -0.00055089733 0.2229014
-0.0052651018 -0.0012079319 0.22273888
-0.0027790219 -0.0018372834 0.22272325
-0.00013758987 -0.0025059523 0.22270666
0.0023640245 -0.0031885521 0.22269124
-0.15205136 0.038761668 0.22364028
-0.1506903 0.038270768 0.22363292
-0.14819893 0.037540447 0.22426346
-0.14558987 0.036814202 0.22460195
-0.14309174 0.036181811 0.22458623
-0.1405936 0.035549406 0.22457053
-0.13809547 0.034916993 0.22455481
-0.13563897 0.034295134 0.22453937
-0.1330992 0.03365219 0.2245234
-0.13060106 0.033019796 0.22450767
-0.12810293 0.032387376 0.22449197
-0.12570995 0.03165045 0.22447795
-0.1239803 0.030690271 0.22447124
-0.12049118 0.030546408 0.22444345
-0.1181104 0.029857785 0.22442912
-0.11561226 0.029225372 0.22441341
-0.11295799 0.028553445 0.22439671
-0.11030373 0.027881511 0.22438002
-0.10780559 0.02724912 0.22436431
-0.10530746 0.0266167 0.2243486
-0.10280932 0.025984313 0.22433288
-0.10034135 0.025380984 0.22431719
-0.097813055 0.024719514 0.22430146
-0.095331356 0.024139579 0.22423632
-0.092816785 0.023454685 0.22427005
-0.090294234 0.022836156 0.22423863
-0.087829426 0.022297278 0.22391441
-0.085512109 0.021413811 0.2242256
-0.082824245 0.020925086 0.22420719
-0.080227666 0.020376954 0.22406329
-0.077760182 0.019684259 0.22353041
-0.07517802 0.019135844 0.22315817
-0.072691947 0.018506501 0.22314252
-0.070205897 0.01787715 0.22312689
-0.067564435 0.017208476 0.2231103
-0.064922996 0.016539793 0.22309366
-0.062436938 0.015910439 0.22307803
-0.059987426 0.015332875 0.22324869
-0.057514697 0.014602455 0.22349484
-0.054978728 0.014022409 0.22303112
-0.052492682 0.013393051 0.22301549
-0.050145 0.012778428 0.22300085
-0.047396388 0.012084617 0.22375485
-0.044879105 0.011465666 0.22296762
-0.042445466 0.010629155 0.22295392
-0.039751578 0.01016764 0.22293535
-0.037265517 0.0095382947 0.22291972
-0.034779456 0.0089089423 0.22290409
-0.032293376 0.0082796086 0.22288844
-0.029807314 0.0076502413 0.22287281
-0.027321268 0.0070209065 0.22285718
-0.02483518 0.0063915625 0.22284153
-0.022193745 0.0057228534 0.22282496
-0.019518506 0.005054608 0.22288613
-0.017088912 0.00441554 0.22280833
-0.014580175 0.0037954971 0.22277704
-0.012094095 0.0031661531 0.22276141
-0.0096080378 0.0025368123 0.22274578
-0.0071219653 0.0019074683 0.22273013
-0.0046359152 0.0012781168 0.2227145
-0.0021498501 0.00064877281 0.22269887
9.1053545e-05 -0.00018719397 0.22268677
0.0024472624 -0.0016250736 0.22267841
-0.14953333 0.040218435 0.22360827
-0.14755332 0.040063713 0.22362353
-0.14508724 0.039364889 0.22429442
-0.14245948 0.038679902 0.22456174
-0.13996136 0.038047493 0.22454603
-0.13763919 0.037475325 0.22453132
-0.1347674 0.037607621 0.22450677
-0.13240997 0.036149476 0.22449844
-0.12996882 0.035517883 0.22448318
-0.12747069 0.034885485 0.22446747
-0.12600814 0.034099907 0.22446164
-0.12219468 0.033916898 0.22443148
-0.11997629 0.032988269 0.22442034
-0.11747815 0.032355871 0.22440462
-0.11498003 0.031723469 0.22438891
-0.11232575 0.031051554 0.22437221
-0.10967149 0.030379616 0.22435552
-0.10717335 0.029747203 0.22433981
-0.10467523 0.029114801 0.22432411
-0.10217708 0.028482407 0.22430839
-0.099727064 0.02782134 0.22429329
-0.097180814 0.027217604 0.22427697
-0.094675876 0.026580848 0.22426124
-0.092184544 0.025952782 0.22424555
-0.089552797 0.025332522 0.22380018
-0.087108888 0.024720009 0.22333837
-0.084712498 0.024227381 0.22419728
-0.082192011 0.023423187 0.2241827
-0.079659246 0.022783384 0.22373402
-0.077034898 0.022251237 0.22314942
-0.074548833 0.02162189 0.22313379
-0.072062761 0.020992547 0.22311816
-0.069576703 0.020363189 0.22310251
-0.067012578 0.019629542 0.22321008
-0.064285077 0.019027054 0.22316293
-0.061829381 0.018383589 0.22305393
-0.05929859 0.017684147 0.22303845
-0.056835618 0.017137788 0.22302239
-0.054349545 0.016508445 0.22300674
-0.051863492 0.015879106 0.22299111
-0.049377423 0.015249745 0.22297548
-0.046945214 0.014557772 0.2230196
-0.044249911 0.013951737 0.22294326
-0.04160846 0.01328303 0.22292662
-0.039122388 0.012653685 0.22291097
-0.03663633 0.012024351 0.22289534
-0.03415028 0.011394993 0.22287971
-0.031657219 0.010766939 0.22287962
-0.029178139 0.01013629 0.22284843
-0.026710417 0.0094344467 0.2228335
-0.024205994 0.0088776061 0.22281717
-0.021564554 0.0082089137 0.22280058
-0.019063402 0.0074294256 0.22288023
-0.016465731 0.0069407877 0.22291753
-0.013950989 0.0062815342 0.22275266
-0.011464901 0.0056522088 0.22273703
-0.0089788362 0.0050228462 0.2227214
-0.0064928085 0.0043935021 0.22270575
-0.0040067285 0.0037641581 0.22269012
-0.0015206486 0.0031348066 0.22267449
0.00092002749 0.0027373899 0.22265738
0.0030112416 0.0028803516 0.22263899
-0.14862151 0.041861378 0.22358808
-0.1467749 0.042424049 0.22356856
-0.14441386 0.041875456 0.2241423
-0.14182724 0.041178018 0.22453725
-0.13932912 0.040545598 0.22452153
-0.13683099 0.039913211 0.22450583
-0.13447127 0.039179366 0.22449204
-0.13190512 0.038138505 0.22447897
-0.12933658 0.03801601 0.22445869
-0.12693442 0.037393797 0.22444369
-0.12323335 0.036821693 0.22441776
-0.12184218 0.036118802 0.22441155
-0.11934404 0.035486378 0.22439584
-0.11684591 0.034853969 0.22438014
-0.11434778 0.034221575 0.22436441
-0.11169351 0.033549666 0.22434771
-0.10890976 0.033054966 0.22432861
-0.10654111 0.032245312 0.22431532
-0.10404298 0.031612922 0.22429961
-0.10154484 0.03098052 0.2242839
-0.099046707 0.030348122 0.22426818
-0.096548572 0.029715706 0.22425248
-0.094050445 0.029083293 0.22423676
-0.091579586 0.028416254 0.22381246
-0.089123815 0.027793098 0.22364886
-0.086419187 0.027288485 0.22401793
-0.084057905 0.026553698 0.22417392
-0.081492864 0.025996972 0.2240846
-0.079057187 0.025307428 0.22412694
-0.076505058 0.024686016 0.2236418
-0.073849604 0.024020195 0.22355586
-0.071433574 0.023478579 0.22309378
-0.068947516 0.022849228 0.22307813
-0.066319354 0.02218188 0.22334729
-0.0636997 0.021429032 0.22381131
-0.061192848 0.02090269 0.2230451
-0.058738731 0.020180251 0.22320028
-0.056206431 0.019623827 0.22299801
-0.053720355 0.018994473 0.22298236
-0.051234305 0.018365141 0.22296673
-0.048803069 0.017874386 0.22295044
-0.046270795 0.017083395 0.22293569
-0.043607093 0.016417988 0.2229189
-0.040979274 0.015769053 0.22290224
-0.038481731 0.015076197 0.22288698
-0.036007144 0.014510364 0.22287096
-0.033521079 0.013881017 0.22285533
-0.031035013 0.013251684 0.2228397
-0.028548952 0.012622324 0.22282405
-0.025838125 0.011956013 0.22332151
-0.023576815 0.01136363 0.22279279
-0.020935379 0.010694955 0.2227762
-0.018402744 0.010009543 0.22320952
-0.015932575 0.0092935478 0.22364111
-0.013398305 0.0088409968 0.22288327
-0.010835707 0.0081382217 0.22271265
-0.0083496571 0.0075088851 0.22269702
-0.0057740062 0.0068899561 0.22283676
-0.0033775419 0.0062501915 0.22266574
-0.00089146942 0.0056208381 0.22265011
0.0017297044 0.0049456451 0.22263373
0.003306441 0.003988659 0.222628
-0.14573097 0.044668969 0.22354254
-0.14375664 0.044345438 0.22376172
-0.14124317 0.043858137 0.22439018
-0.13861854 0.043120362 0.2244958
-0.13615923 0.042567436 0.22447978
-0.1339397 0.042345565 0.22446324
-0.13178363 0.042788833 0.22444218
-0.12857455 0.040518738 0.22443309
-0.12667879 0.039458618 0.22442573
-0.12337141 0.039291862 0.22439969
-0.12117042 0.038773034 0.22438551
-0.11866891 0.038115345 0.22436999
-0.11617415 0.037508219 0.22435409
-0.11367603 0.036875814 0.22433838
-0.11103445 0.036136221 0.2243223
-0.10838289 0.035535835 0.22430511
-0.10583699 0.034896124 0.22428906
-0.10337122 0.034267161 0.22427356
-0.10087308 0.033634759 0.22425786
-0.098374955 0.033002362 0.22424215
-0.095876828 0.032369927 0.22422643
-0.093396313 0.031732623 0.22421092
-0.090846792 0.03098198 0.22417817
-0.088382408 0.030472752 0.2241793
-0.085884288 0.029840343 0.22416359
-0.083386138 0.029207952 0.22414787
-0.080887288 0.028521068 0.22350115
-0.078325406 0.027826816 0.22337851
-0.075702652 0.027218625 0.22407424
-0.073070869 0.026582874 0.22406773
-0.070804387 0.02596461 0.2230694
-0.06831833 0.025335278 0.22305375
-0.065594755 0.024788324 0.2230355
-0.063033246 0.023963276 0.2233939
-0.060627438 0.023348995 0.22319138
-0.058063306 0.022739206 0.22298926
-0.055577241 0.022109859 0.22297363
-0.053091176 0.021480508 0.22295798
-0.050605111 0.020851165 0.22294235
-0.048134729 0.020211034 0.22294278
-0.045446668 0.019716311 0.22380677
-0.043038368 0.018984184 0.22327247
-0.040350087 0.018255115 0.22287786
-0.037855133 0.017660849 0.22286187
-0.035377964 0.016996406 0.22284658
-0.032891896 0.016367052 0.22283095
-0.030405823 0.015737735 0.22281532
-0.027918894 0.015100735 0.22284733
-0.025406744 0.014511225 0.22287585
-0.022947624 0.013849686 0.22276841
-0.020306177 0.013180994 0.22275183
-0.017668385 0.012507928 0.22278212
-0.015221082 0.011826835 0.22303908
-0.012949459 0.011179923 0.22302322
-0.010190815 0.010772501 0.2231475
-0.0077204779 0.0099949446 0.22267264
-0.0052344054 0.0093655819 0.22265701
-0.0027483553 0.0087362248 0.22264136
-0.00026227534 0.008106892 0.22262573
0.0018480644 0.0074881278 0.22261302
-0.14475669 0.047496289 0.22351274
-0.14309728 0.047016639 0.22365665
-0.1405659 0.046449013 0.22438322
-0.13798562 0.045854066 0.22446948
-0.13548747 0.045221653 0.22445378
-0.13298935 0.044589251 0.22443806
-0.13051882 0.043995999 0.22442228
-0.12779658 0.043732598 0.22440191
-0.12559107 0.043060262 0.2243889
-0.12283494 0.04175102 0.22437632
-0.12050171 0.041170672 0.22436152
-0.11800054 0.040794842 0.22434379
-0.11557518 0.0401465 0.22432882
-0.11283773 0.039504826 0.22431122
-0.11035001 0.038858104 0.22429566
-0.10769574 0.038186189 0.22427899
-0.10519761 0.03755378 0.22426327
-0.10269947 0.036921382 0.22424756
-0.10020134 0.036288969 0.22423184
-0.097703204 0.03565659 0.22421613
-0.095207363 0.035020951 0.22418484
-0.092711911 0.034385562 0.22415356
-0.090225346 0.033745743 0.22395962
-0.087733328 0.033102456 0.22402869
-0.085212536 0.032494549 0.22413757
-0.082714401 0.031862151 0.22412187
-0.080231011 0.031053599 0.22341764
-0.077660561 0.030367054 0.22323473
-0.075135455 0.029783189 0.22327255
-0.072479412 0.029204451 0.22377683
-0.070069082 0.028520856 0.22344978
-0.067667186 0.02783468 0.22310723
-0.065039776 0.027157377 0.22304046
-0.062406249 0.026483923 0.22299616
-0.059920184 0.025854599 0.22298051
-0.057434112 0.025225252 0.22296488
-0.054948069 0.024595868 0.22294925
-0.052403372 0.02406536 0.2234937
-0.050049778 0.023412429 0.22308701
-0.047497407 0.022803199 0.22329442
-0.044853754 0.022292975 0.2237967
-0.04238534 0.021410514 0.22299029
-0.039714389 0.020743269 0.22286902
-0.03723485 0.020111777 0.22283785
-0.034748778 0.019482449 0.2228222
-0.032213651 0.018867131 0.22291543
-0.029776633 0.018223763 0.22279094
-0.027287528 0.017640606 0.22283943
-0.024693951 0.017057836 0.22341315
-0.02217323 0.016518071 0.22366315
-0.019518699 0.015760463 0.22348841
-0.017088503 0.015079453 0.22276947
-0.014549494 0.014369004 0.22269517
-0.012149654 0.013855449 0.22269686
-0.0094873756 0.01318255 0.2231919
-0.0071492046 0.012459111 0.22269367
-0.0046052337 0.011851604 0.22263263
-0.0021191686 0.011222265 0.22261699
0.00036691129 0.010592897 0.22260135
0.0022023395 0.010026935 0.22259046
-0.14427154 0.049467683 0.22349349
-0.14249226 0.049466901 0.22385029
-0.13991095 0.048935927 0.22421165
-0.13738671 0.048383109 0.22441472
-0.13537166 0.047918905 0.22443205
-0.13191456 0.04690415 0.22441138
-0.12985897 0.046454977 0.22439785
-0.12736084 0.045822568 0.22438215
-0.12486269 0.045190167 0.22436643
-0.12264106 0.045188464 0.22434829
-0.11957841 0.044810914 0.22432595
-0.11743359 0.043019719 0.22432198
-0.11475313 0.042607196 0.22430305
-0.11237203 0.042028148 0.22428787
-0.10971776 0.041356228 0.22427116
-0.10706349 0.04068429 0.22425449
-0.10456536 0.040051885 0.22423877
-0.10206723 0.039419472 0.22422306
-0.09956909 0.038787086 0.22420734
-0.097070955 0.038154691 0.22419164
-0.094637573 0.037429091 0.22373977
-0.092174426 0.036754485 0.22352155
-0.089664795 0.036332961 0.22397451
-0.087106958 0.035593897 0.22397304
-0.084580287 0.034992676 0.22411308
-0.082082152 0.034360271 0.22409737
-0.0795874 0.033724904 0.22406609
-0.077068478 0.033096053 0.22403504
-0.074499488 0.032342322 0.22373621
-0.071785189 0.031745628 0.22400144
-0.069384865 0.031048078 0.2236277
-0.066989474 0.030351337 0.22325405
-0.064257875 0.029736865 0.22354175
-0.061801225 0.028998561 0.22322592
-0.059312604 0.028453659 0.22337963
-0.056765944 0.027810019 0.22328785
-0.054325808 0.027109351 0.2229555
-0.051810741 0.026462283 0.22297147
-0.049346752 0.025823258 0.2228936
-0.046873417 0.025257904 0.2229595
-0.044284772 0.024608113 0.22327906
-0.041733168 0.023895871 0.22284575
-0.039096344 0.023292698 0.22308719
-0.036654819 0.022648264 0.22303087
-0.034137491 0.022011999 0.22282889
-0.031582337 0.021355219 0.22295088
-0.029147454 0.020709779 0.22276656
-0.026694041 0.020109639 0.2228343
-0.023984402 0.019623168 0.22361553
-0.021525964 0.019018497 0.22366975
-0.018988822 0.018371623 0.22368529
-0.016530424 0.017597992 0.22308911
-0.013783775 0.017003771 0.22346085
-0.011576228 0.016354751 0.22286312
-0.0089481622 0.015596337 0.22263952
-0.0064621121 0.014966977 0.22262388
-0.0038300529 0.014363072 0.22285683
-0.0014899895 0.013708291 0.22259261
0.00059454143 0.012910415 0.22258148
0.0022490472 0.011714655 0.2225771
-0.14160167 0.051625289 0.22345482
-0.13941963 0.051435828 0.22343844
-0.13687082 0.050885543 0.22404492
-0.13422298 0.050217871 0.22440478
-0.13172486 0.049585465 0.22438908
-0.12922673 0.048953075 0.22437336
-0.12672858 0.048320707 0.22435765
-0.12423044 0.047688287 0.22434193
-0.12169827 0.047063354 0.22432588
-0.11928611 0.046480913 0.2243105
-0.11675979 0.046174657 0.22429207
-0.11408275 0.045285523 0.22427684
-0.11173978 0.044526257 0.22426337
-0.10908552 0.043854333 0.22424667
-0.10643125 0.043182425 0.22422999
-0.10393311 0.042550009 0.22421427
-0.10143498 0.041917589 0.22419856
-0.098905534 0.041306268 0.22412182
-0.096577153 0.040814579 0.22391708
-0.093996964 0.039912768 0.22343644
-0.091515861 0.03928392 0.2236685
-0.088944316 0.038755581 0.22412001
-0.086446173 0.038123198 0.2241043
-0.083948046 0.037490785 0.22408858
-0.08142107 0.036841057 0.22399704
-0.078966439 0.036188234 0.22385128
-0.076453649 0.03559358 0.22404145
-0.073837362 0.034891669 0.22387257
-0.071249098 0.034169883 0.22360338
-0.068825826 0.03361553 0.22318847
-0.066391453 0.032948751 0.22297913
-0.063749999 0.032280073 0.2229625
-0.06111782 0.031725038 0.22353514
-0.058587641 0.031120401 0.22384049
-0.056226283 0.030437507 0.22363764
-0.053659387 0.029765677 0.22379249
-0.051135696 0.029092882 0.22344828
-0.048800305 0.028459467 0.22303791
-0.046125278 0.027882941 0.22369227
-0.043743048 0.027272828 0.2230204
-0.041067064 0.026538447 0.22286862
-0.038504098 0.025809187 0.22281925
-0.035723172 0.025312752 0.22346206
-0.033493284 0.024594676 0.22282577
-0.030958645 0.023982603 0.22277012
-0.028478935 0.023351207 0.22274069
-0.02599287 0.022721846 0.22272505
-0.02350682 0.02209251 0.22270942
-0.02102074 0.021463167 0.22269379
-0.018352393 0.020967726 0.22328486
-0.015772052 0.020322852 0.22357342
-0.013411701 0.019664422 0.22345075
-0.010887988 0.018948682 0.22293642
-0.0082796514 0.018237751 0.22261365
-0.0057935864 0.017608404 0.22259802
-0.0033075362 0.01697905 0.22258238
-0.00082147866 0.016349703 0.22256674
0.00073231012 0.015956379 0.22255687
-0.14050215 0.053473428 0.22343151
-0.13859396 0.053865634 0.22341278
-0.1362057 0.053354368 0.22352567
-0.13366742 0.052777648 0.22390689
-0.13113961 0.05217443 0.22427733
-0.12859449 0.051451162 0.22434886
-0.12609635 0.050818756 0.22433315
-0.12359822 0.050186347 0.22431745
-0.12110008 0.049553949 0.22430173
-0.11863859 0.048873615 0.22428669
-0.11609086 0.048267413 0.22427036
-0.11360568 0.04765676 0.22425459
-0.11110755 0.047024347 0.22423889
-0.10845328 0.046352409 0.22422217
-0.10579902 0.045680474 0.22420549
-0.10330088 0.045048084 0.22418979
-0.10080274 0.044415697 0.22417407
-0.098338544 0.043802932 0.22406176
-0.095773183 0.043180838 0.22392182
-0.093308918 0.042549595 0.2241267
-0.090810217 0.041886054 0.22411123
-0.088312075 0.04125366 0.22409551
-0.08581394 0.040621277 0.2240798
-0.083318301 0.040000215 0.22406402
-0.080772161 0.039376676 0.22401755
-0.078358412 0.038744267 0.22352572
-0.075821407 0.038091648 0.22401695
-0.073167138 0.037419721 0.22400025
-0.070504278 0.036764283 0.22396798
-0.068200655 0.036225926 0.22299996
-0.065722935 0.035590149 0.2229532
-0.063081481 0.034921505 0.22293662
-0.060532384 0.034170669 0.22322898
-0.058015641 0.033545915 0.22378407
-0.055431783 0.033009179 0.22378285
-0.053004272 0.032334164 0.22385792
-0.050550997 0.031691242 0.22325057
-0.047914259 0.031132001 0.2236225
-0.045477398 0.030520558 0.22359563
-0.043085057 0.02986278 0.22352256
-0.040500909 0.02931476 0.22372083
-0.037817571 0.028596237 0.22377697
-0.035189752 0.027778372 0.22364399
-0.032758512 0.027235977 0.22287709
-0.030305963 0.02662519 0.22276121
-0.027788758 0.025907949 0.222783
-0.025324363 0.025363263 0.22269912
-0.022770442 0.024826404 0.22315489
-0.020275105 0.024189342 0.22310312
-0.017710801 0.023435891 0.22265127
-0.015113175 0.022690069 0.22270803
-0.012627594 0.022069901 0.2226532
-0.010158166 0.021479335 0.22264886
-0.0076290369 0.020881072 0.22258785
-0.0051371753 0.020259701 0.22258748
-0.0026390031 0.019620471 0.22255644
-0.00049223006 0.018718105 0.22254559
0.0011000037 0.017626833 0.22254093
-0.13744397 0.055757895 0.22338867
-0.13580593 0.055732295 0.22337539
-0.13311978 0.055275667 0.22335683
-0.13053508 0.054604486 0.22366066
-0.12796225 0.053949267 0.22432436
-0.12546411 0.053316895 0.22430865
-0.12296597 0.05268449 0.22429295
-0.12046784 0.052052081 0.22427723
-0.11815826 0.051779401 0.22426035
-0.11515036 0.05097254 0.22424176
-0.11295671 0.050148014 0.22423001
-0.1104753 0.049522467 0.22421439
-0.10782103 0.048850551 0.22419767
-0.10516676 0.048178617 0.224181
-0.10266864 0.047546215 0.22416529
-0.1001705 0.046913814 0.22414957
-0.097672366 0.046281412 0.22413386
-0.095174238 0.045648992 0.22411816
-0.092676103 0.045016591 0.22410244
-0.090177968 0.044384208 0.22408673
-0.087679826 0.043751791 0.22407101
-0.085314527 0.043016557 0.22405721
-0.082619615 0.042394765 0.22403978
-0.080061235 0.041825566 0.22364159
-0.077524066 0.041222952 0.22300701
-0.075161546 0.04055284 0.22354099
-0.072534896 0.039917856 0.22397575
-0.070024505 0.039155982 0.22338295
-0.067558616 0.038662836 0.22294462
-0.065093748 0.038076203 0.22292882
-0.062468141 0.037418518 0.22291228
-0.059723116 0.03682629 0.22372216
-0.057332449 0.036176614 0.22358993
-0.054898821 0.035455823 0.22332202
-0.052302092 0.034829944 0.22348835
-0.049982019 0.034155469 0.22293794
-0.047351416 0.033493694 0.22326043
-0.045029338 0.032821637 0.22305389
-0.042292934 0.03231531 0.2235852
-0.039847527 0.031753469 0.22342221
-0.037210234 0.031025283 0.22341187
-0.034650542 0.030282103 0.22348396
-0.032094181 0.029667944 0.22349769
-0.029717088 0.02904696 0.22302055
-0.027055942 0.028448049 0.22364023
-0.02464005 0.027879152 0.2230024
-0.022206534 0.027164426 0.2226903
-0.019684661 0.026456252 0.22284417
-0.017157946 0.025971886 0.2226416
-0.014405057 0.025244366 0.22261003
-0.011954091 0.024623897 0.22259462
-0.0094506592 0.023999274 0.22261004
-0.006981954 0.023365177 0.22256334
-0.0044958815 0.022735856 0.22254771
-0.0020098388 0.022106502 0.22253208
-0.00018951297 0.021774273 0.22251952
-0.13457151 0.057928283 0.22334822
-0.1325206 0.057790633 0.22333248
-0.12986168 0.057109583 0.22342394
-0.12734108 0.056468476 0.22428443
-0.12483186 0.055814993 0.22428416
-0.12233373 0.055182584 0.22426845
-0.11983559 0.054550204 0.22425273
-0.11733747 0.053917773 0.22423702
-0.11483933 0.053285394 0.22422132
-0.1123412 0.052652966 0.2242056
-0.10984306 0.052020568 0.22418989
-0.10718879 0.051348645 0.22417319
-0.10453452 0.050676718 0.2241565
-0.1020364 0.050044283 0.22414079
-0.099538259 0.049411908 0.22412509
-0.097040124 0.048779529 0.22410937
-0.094541997 0.048147105 0.22409366
-0.092043862 0.04751467 0.22407794
-0.089545727 0.046882294 0.22406223
-0.087047577 0.04624993 0.22404653
-0.08458066 0.045677129 0.22403061
-0.081977874 0.045063052 0.2238199
-0.079555422 0.044296749 0.22349247
-0.076942265 0.043600835 0.22300106
-0.074446395 0.043044183 0.22353609
-0.071902648 0.042415947 0.22395125
-0.069255695 0.041759614 0.22391865
-0.066942662 0.041077737 0.22324842
-0.064482816 0.040423449 0.22297707
-0.061810806 0.039794523 0.22291879
-0.059160475 0.039182175 0.22287138
-0.05669561 0.038595531 0.22285558
-0.054265819 0.038029511 0.22285658
-0.051789336 0.037332714 0.2229553
-0.04929819 0.036713228 0.22302943
-0.046742007 0.035968978 0.22379363
-0.044268809 0.035491947 0.22338228
-0.04173759 0.034820605 0.22335288
-0.039219789 0.034141123 0.22282386
-0.036587991 0.033487137 0.22295141
-0.033879276 0.03288326 0.22371142
-0.031448904 0.032172985 0.22368148
-0.029023584 0.031480353 0.22323301
-0.026409164 0.030841582 0.22361478
-0.024129454 0.030228306 0.22310618
-0.021574609 0.029693399 0.22307467
-0.018925577 0.029005289 0.22351666
-0.016568728 0.028258577 0.22272767
-0.013796367 0.027726211 0.22264934
-0.011324905 0.027109928 0.22257024
-0.0088388398 0.0264806 0.22255461
-0.0063527748 0.025851242 0.22253896
-0.0040085986 0.025127891 0.22252519
-0.0016859025 0.02388284 0.22251558
-0.00012768805 0.023228258 0.2225078
-0.13163099 0.059875604 0.22330891
-0.12924998 0.059607979 0.22329152
-0.12663004 0.058859106 0.22347279
-0.12421848 0.058341842 0.22412531
-0.12170149 0.057680681 0.22424395
-0.11920337 0.05704825 0.22422825
-0.11670522 0.05641586 0.22421253
-0.11420709 0.05578348 0.22419682
-0.11170896 0.055151056 0.2241811
-0.10921083 0.054518651 0.22416539
-0.10655655 0.053846736 0.22414869
-0.1039023 0.053174797 0.224132
-0.10140416 0.052542403 0.2241163
-0.098906025 0.051910006 0.22410059
-0.09640789 0.0512776 0.22408487
-0.093909755 0.050645195 0.22406916
-0.09141162 0.050012778 0.22405346
-0.088913485 0.049380392 0.22403774
-0.08641535 0.048747975 0.22402203
-0.083917215 0.048115574 0.22400631
-0.081486583 0.047399938 0.22338536
